ply
format ascii 1.0
element vertex 1206
property float x
property float y
property float z
property uchar red
property uchar green
property uchar blue
end_header
0.758828 -0.198943 19.855259 148 148 150
0.738565 0.064289 19.511236 178 178 174
0.749109 0.156538 19.670511 158 160 148
0.751025 0.188823 19.704453 205 209 185
0.740677 0.352035 19.614162 212 220 168
0.737589 1.168661 19.325535 147 155 144
0.811401 -7.556696 20.951817 76 87 46
0.817205 -7.414967 21.053600 64 71 40
0.816626 -6.590601 21.093998 69 75 47
0.891522 -4.884011 22.868090 150 145 139
0.756171 0.001004 19.538183 155 157 154
0.754927 0.451587 19.486155 173 180 128
0.723582 1.260951 18.758799 186 198 123
0.824233 2.313687 21.205803 81 90 37
0.815217 2.385021 21.118135 136 150 92
0.799515 2.714939 20.553698 41 46 21
0.898478 -4.809520 22.869345 153 148 142
0.885548 -4.654924 22.562796 146 141 136
0.727003 0.678650 18.534740 156 170 102
0.722997 0.756223 18.381550 114 128 68
0.791590 1.566064 20.385859 126 135 102
0.840339 2.119469 21.341900 125 129 133
0.801481 2.913664 20.442553 84 91 80
0.792092 3.076628 20.271624 47 49 18
0.842201 -7.188485 21.093094 135 160 93
0.832553 -7.072213 21.016548 145 167 84
0.841834 -6.731983 21.065136 120 127 108
0.925364 -6.011765 23.123972 147 141 127
0.886971 -4.503148 22.253416 154 150 147
0.898764 -1.111345 22.428076 154 153 158
0.778652 0.243892 19.683252 177 182 147
0.773039 0.427369 19.501724 153 161 118
0.847951 -7.520398 20.997890 81 91 50
0.887118 -6.055243 21.915997 151 148 139
0.921167 -4.859932 22.860968 153 148 143
0.916181 -1.593131 22.884106 161 159 162
0.800516 -0.219796 19.832699 147 147 149
0.800334 -0.159740 19.740616 147 147 147
0.821324 1.807788 20.363594 106 120 131
0.827642 2.562915 20.661663 93 109 59
0.869176 -7.005518 21.047836 60 69 43
0.899117 -4.352299 22.109058 155 151 148
0.927375 -1.463940 22.725666 158 159 158
0.738250 0.776938 18.051222 128 140 75
0.860127 2.287079 21.055927 107 119 59
0.840979 2.652997 20.565603 206 208 174
0.880678 -7.299348 21.138031 180 191 104
0.883904 -6.554937 21.092907 175 176 124
0.914287 -6.474980 22.014812 116 119 102
0.922523 -6.449795 22.048771 163 172 143
0.938228 -1.362649 22.652601 155 153 157
0.815233 0.003717 19.550995 155 156 151
0.822614 0.149203 19.686958 147 149 136
0.805296 0.359347 19.604376 147 157 126
0.812150 0.473709 19.425222 159 168 128
0.755919 0.688826 18.199133 154 165 98
0.745284 0.882279 17.940359 121 129 83
0.899420 -6.913644 21.120995 87 97 63
0.892767 -6.640487 21.007938 63 74 61
0.932909 -6.293939 22.039980 120 117 109
0.947846 -1.533397 22.663595 161 159 162
0.832796 -0.316687 19.854053 149 149 150
0.834447 -0.232692 19.801336 149 149 151
0.875374 2.017494 20.672321 70 77 76
0.879247 2.085103 20.862923 148 154 139
0.868671 -7.547329 20.374588 96 101 60
0.900062 -6.774281 21.102079 115 125 103
0.930680 -6.694582 21.849998 180 184 149
0.930808 -6.620719 21.978064 88 102 59
0.967698 -4.567795 22.584259 156 153 150
0.965671 -1.311834 22.604359 161 159 161
0.948842 -1.112554 22.225910 155 154 159
0.792420 0.578553 18.377205 182 190 131
0.914253 -7.426075 21.053852 172 179 148
0.923415 -7.217776 21.103018 72 87 78
0.921494 -7.016372 21.081491 87 95 71
0.951802 -6.583268 22.003298 104 117 98
0.989689 -4.791055 22.942701 155 152 147
0.846102 0.109223 19.602474 156 155 152
0.892603 1.841026 20.541037 102 115 123
0.907555 2.419145 20.963209 44 54 16
0.886370 3.019868 20.381958 57 54 39
0.924174 -7.575438 20.818308 82 88 32
0.928671 -6.598667 21.068943 190 193 159
0.967488 -6.147592 22.061676 150 149 144
1.003164 -4.874628 22.950199 153 150 143
0.977260 -4.388371 22.231525 156 152 150
0.988132 -1.253201 22.537348 159 159 161
0.905544 2.834924 20.529375 127 127 125
0.936408 -7.237799 21.096096 212 221 170
0.950358 -6.876323 21.267908 70 76 47
0.880152 -0.075717 19.704638 150 150 147
0.793945 1.018555 17.892027 167 171 164
0.944816 2.230092 21.117815 172 176 156
0.923149 2.553082 20.730633 145 150 55
0.910425 3.086193 20.324848 40 43 25
0.945271 -7.600015 20.734165 93 104 48
0.947087 -7.450071 20.956118 167 184 152
0.953045 -7.145227 21.026861 187 179 212
0.950214 -6.720466 21.096287 86 91 86
1.007459 -4.439133 22.369064 156 152 149
1.019788 -4.241327 22.492788 159 155 154
1.023169 -1.200252 22.510244 155 154 159
1.000678 -1.083814 22.061474 154 155 159
0.954867 2.382807 21.082209 144 162 77
0.927531 2.856396 20.498072 123 123 121
0.925069 2.980887 20.431742 97 94 101
0.959813 -7.582524 20.825991 79 87 32
0.968956 -7.370414 21.035126 144 157 109
0.986129 -6.961083 21.359684 95 103 80
1.039485 -1.648197 22.779903 153 154 158
0.901910 0.245824 19.665895 229 231 196
0.852472 0.502999 18.571659 124 133 88
0.945379 2.819546 20.591269 127 128 123
0.938313 2.831162 20.543411 128 129 124
0.993737 -7.001685 21.342299 95 100 76
0.979905 -6.656979 21.080387 126 130 122
1.026160 -6.672462 21.987631 97 99 81
1.016722 -1.071185 22.015060 152 153 159
0.923411 -0.311534 19.924694 147 147 154
0.907549 0.324679 19.580074 130 145 101
0.941155 3.045216 20.397789 59 61 51
0.983949 -7.497459 20.898867 172 190 150
0.984097 -7.025186 20.973808 89 96 66
1.054440 -1.436185 22.645519 184 180 180
1.056023 -1.296552 22.524572 181 179 178
0.915969 0.103278 19.611959 172 173 160
0.845972 0.792970 18.058266 195 206 146
0.851711 0.809963 18.066931 172 181 120
0.842879 0.860546 18.003950 110 113 81
0.977664 2.074385 20.754782 151 151 141
0.998336 2.339562 21.140768 164 183 99
0.986999 2.416054 21.002354 143 151 64
0.983358 2.471120 20.936815 184 194 119
0.984436 2.506956 20.838509 72 74 35
0.982647 2.514290 20.818520 137 148 84
0.977562 2.587533 20.714544 161 147 87
0.950812 3.066338 20.373455 58 61 49
1.034961 -6.737626 21.789789 121 124 98
1.061648 -6.139665 22.199390 146 145 140
0.928586 -0.007253 19.571234 172 172 147
0.929999 0.241204 19.584635 170 176 138
0.919678 0.420632 19.380423 101 112 72
0.868949 0.601339 18.248207 120 130 73
0.977582 1.834460 20.552114 100 112 126
0.984875 2.024771 20.694580 146 148 146
1.002922 2.175545 21.035513 163 162 158
0.986317 2.631887 20.628780 210 196 179
0.971175 2.870650 20.429977 125 127 124
1.005365 -7.554905 20.832972 71 89 38
1.006884 -7.548878 20.866463 82 102 65
1.014987 -7.445697 21.003298 61 74 70
1.067000 -6.487433 22.073484 94 95 88
0.938788 0.350760 19.480556 122 136 87
0.851131 1.094708 17.596579 84 101 56
0.984321 2.737838 20.496601 132 132 126
1.023781 -7.187116 21.007076 164 177 150
1.098738 -1.502829 22.489851 159 157 158
0.886676 0.714522 18.152676 190 202 133
1.040856 -7.376857 21.009405 66 81 70
1.089097 -6.398026 22.111807 141 148 121
1.101724 -5.829939 22.432522 149 143 131
1.108723 -1.553016 22.467997 163 163 163
1.081995 -0.974786 21.939154 153 153 155
0.974036 -0.188030 19.836432 161 161 162
0.973388 0.099964 19.625437 149 151 137
0.999210 2.927692 20.123211 98 97 102
1.057070 -7.408971 21.021921 226 225 210
1.059965 -6.786144 21.161520 127 135 129
1.104103 -6.329090 22.139971 131 131 115
1.026623 -4.914488 21.384878 156 153 149
1.098814 -1.084801 22.057453 153 152 159
0.969069 0.283500 19.450468 83 94 43
0.851742 0.967166 17.139584 99 113 61
1.085213 -7.041572 21.521416 132 144 127
1.083903 -6.923493 21.381733 124 137 120
1.070559 -6.664249 21.144924 98 110 102
1.134471 -6.198431 22.253006 148 149 144
1.128724 -1.335097 22.445662 206 202 195
0.945711 0.449490 18.668465 158 170 122
0.924695 0.552320 18.359505 171 186 115
0.919883 0.767937 18.112444 163 172 114
1.026427 3.015668 20.161381 71 68 54
1.075271 -7.311348 21.017481 218 222 191
1.073500 -7.207993 20.948614 176 180 159
1.082821 -7.050109 21.080774 75 82 46
1.092571 -7.100826 21.403963 93 100 74
1.141679 -6.561866 22.088747 119 124 97
1.019145 -0.286717 19.839170 149 150 154
1.000063 0.010593 19.600395 183 190 172
0.954532 0.492950 18.536417 185 194 152
1.076742 2.421904 21.028172 41 50 41
1.038784 2.756646 20.279722 127 127 120
1.039135 2.795856 20.153822 123 123 113
1.091503 -7.509663 20.865246 178 196 179
1.147590 -6.762108 22.129778 156 151 133
1.163527 -1.414419 22.418232 167 166 166
1.150720 -1.188502 22.131435 187 185 183
1.130504 -0.912013 21.783203 153 153 155
1.022955 -0.305698 19.849247 147 148 152
1.030424 -0.150006 19.799187 151 152 149
1.006565 0.359866 19.356737 88 98 47
1.091343 -7.594669 20.831165 187 212 147
1.146952 -6.848325 21.911762 231 235 208
1.157151 -6.475141 22.092779 88 96 72
1.155711 -6.437092 22.087502 162 167 147
1.169666 -2.840921 22.365828 153 151 154
1.172843 -1.634649 22.421755 154 153 158
0.945711 0.683981 18.114841 180 192 118
0.898423 1.023565 17.080288 115 124 71
1.084716 2.613653 20.637070 39 38 38
1.101207 -7.666025 20.787741 185 207 162
1.173838 -6.689105 22.101402 213 216 195
1.168897 -6.385126 22.075428 92 93 75
1.197388 -6.163811 22.542940 147 147 139
1.167898 -1.686293 22.071823 153 152 157
1.187957 -1.561200 22.382744 155 154 159
1.161590 -0.961916 21.873716 152 152 154
0.954024 0.829822 18.053312 192 202 158
0.901673 1.079546 16.961199 177 197 124
1.123938 -7.313852 20.916101 105 118 79
1.131714 -6.691144 21.196539 80 107 97
1.191885 -6.284715 22.123569 152 148 133
1.193957 -3.454954 22.276337 156 154 155
1.076667 2.843455 20.124361 126 127 123
1.133756 -7.459836 20.983845 188 187 156
1.168429 -7.033409 21.564764 170 174 178
1.225783 -6.191803 22.520090 147 146 141
1.230878 -6.135860 22.607151 148 146 134
1.207433 -3.274851 22.217329 159 155 156
1.201686 -1.404578 22.272791 164 162 165
1.126213 1.830493 20.787739 67 72 62
1.132337 1.946253 20.798550 74 79 71
1.137288 2.350335 20.937794 116 124 110
1.147708 -7.348023 20.919476 161 169 114
1.208470 -6.871602 22.007851 132 120 104
1.209591 -6.818369 22.112637 213 206 181
1.202131 -6.439927 22.067806 208 213 190
1.218285 -3.155113 22.175381 155 153 154
1.204392 -2.921273 22.125912 153 153 153
1.212975 -2.705305 22.095509 158 156 156
1.209998 -1.312219 22.199028 201 194 194
1.076664 -0.070130 19.749311 150 156 146
1.055853 0.375771 19.278950 149 161 109
0.940618 0.871779 17.113173 202 209 177
1.136951 2.186965 20.834467 53 63 53
1.143793 2.261956 20.816555 79 86 78
1.158453 -7.225523 20.819902 255 253 237
1.194178 -7.161686 21.587952 121 128 99
1.170945 -6.767866 21.207954 66 83 88
1.255308 -6.139425 22.626713 148 144 133
1.219037 -2.250418 22.022572 155 153 154
1.211165 -1.125561 21.936176 202 195 194
1.012425 0.526529 18.313717 167 177 108
1.007218 0.596374 18.218563 161 177 114
1.005916 0.722420 18.115007 94 105 57
1.150967 1.724410 20.817936 93 101 85
1.144238 2.006625 20.781647 51 55 49
1.147518 2.071095 20.758816 124 131 123
1.150520 2.414371 20.854734 62 66 60
1.134017 2.658542 20.469755 124 127 119
1.111381 2.976482 20.102676 58 55 55
1.243555 -3.318831 22.233624 155 153 154
1.236035 -2.906891 22.123762 157 157 159
1.243873 -2.461980 22.094793 159 155 154
1.108392 -0.166181 19.799692 177 180 167
1.086487 0.258070 19.413900 137 147 97
1.081811 0.339526 19.271589 136 150 106
1.014941 0.762212 18.129160 123 137 91
1.157803 2.595296 20.604969 67 69 61
1.179731 -7.617648 20.785929 255 254 251
1.203675 -6.723785 21.171646 151 153 173
1.249274 -6.644829 22.083750 90 102 90
1.276623 -6.208219 22.597279 151 149 142
1.269610 -3.373016 22.254734 157 157 155
1.256999 -2.859163 22.127388 157 155 156
1.251021 -2.633067 22.120892 160 156 155
1.241912 -2.418555 22.080853 157 154 155
1.263265 -1.571005 22.387545 154 153 158
1.110913 0.021191 19.608423 105 112 105
1.085022 0.407057 19.235891 101 120 68
0.972857 0.974672 17.143064 163 173 102
1.188469 -7.752685 20.730871 131 149 108
1.196414 -7.619947 20.974670 143 155 109
1.183097 -7.175808 20.749813 214 222 193
1.218376 -7.140273 21.375885 113 120 91
1.231198 -7.009313 21.549818 207 211 205
1.252922 -6.855085 21.995102 199 197 186
1.266064 -6.497331 22.083643 216 211 208
1.267540 -3.071116 22.155691 161 155 157
1.266388 -1.482252 22.205019 152 151 156
1.253809 -0.972521 21.870110 154 154 154
1.104812 0.363583 19.248375 109 125 83
1.207625 -7.717032 20.808249 203 232 207
1.278062 -3.225832 22.220943 155 155 155
1.275688 -3.039373 22.146891 158 155 155
1.273620 -2.701612 22.127224 159 155 152
1.282071 -2.565593 22.128731 160 156 153
1.297646 -1.610229 22.492968 154 153 157
1.277511 -1.390594 22.132280 154 152 155
1.274492 -1.206189 21.896330 212 207 203
1.143093 -0.064773 19.748653 155 159 136
1.116450 0.334863 19.315996 97 113 75
1.049555 0.679900 18.128733 83 94 48
0.994361 0.852437 17.189377 173 183 153
0.990131 0.984861 17.143187 176 183 104
1.166936 2.857339 20.133842 123 127 128
1.225387 -7.548561 20.978922 195 200 173
1.228535 -7.381103 20.875086 137 159 115
1.267000 -7.108968 21.549593 115 120 93
1.307612 -3.470209 22.343304 160 158 159
1.301629 -3.311803 22.270487 155 153 154
1.289834 -2.823724 22.145195 160 156 155
1.284573 -2.618478 22.129410 161 157 156
1.288962 -2.456648 22.110325 159 155 154
1.286765 -2.421661 22.096064 156 152 151
1.056422 0.606671 18.176947 98 112 54
1.057485 0.696163 18.127106 89 99 46
1.209913 2.137203 20.754894 45 56 47
1.189719 2.556960 20.404936 35 37 29
1.185152 2.736391 20.295391 90 94 82
1.305531 -6.689557 22.121027 251 248 234
1.308855 -2.346133 22.096788 160 156 155
1.299348 -2.241251 22.047894 156 154 154
1.297252 -2.191616 22.033863 154 152 153
1.295125 -2.135321 22.014217 156 153 156
1.295771 -2.102320 21.997068 156 153 156
1.287656 -1.119798 21.747124 201 196 192
1.269486 -1.046712 21.646454 187 186 182
1.146891 0.267546 19.400076 178 188 135
1.009825 0.779633 17.153318 91 106 51
1.223002 1.384172 20.642923 172 182 121
1.219439 1.587088 20.775551 59 69 39
1.201424 2.652640 20.345236 111 117 94
1.188609 2.801493 20.253607 43 49 51
1.243902 -7.715149 20.849152 104 122 88
1.243072 -7.080134 20.940630 75 86 51
1.350470 -6.198005 22.726540 153 150 141
1.351121 -6.025457 22.695503 146 142 130
1.324924 -3.203510 22.237612 156 155 153
1.324196 -3.155593 22.220570 154 154 152
1.309877 -2.513249 22.147469 161 156 153
1.255966 -0.882458 21.104504 152 151 155
1.123308 0.460081 18.907494 152 163 97
1.090812 0.537020 18.233646 119 133 69
1.026447 0.878881 17.259491 108 116 68
1.358473 -6.228467 22.607052 153 151 139
1.340560 -3.124614 22.219837 158 156 157
1.338700 -2.974199 22.176996 156 154 155
1.162964 0.303210 19.323372 101 116 77
1.025901 1.095430 17.033020 165 178 96
1.226637 2.590150 20.357262 39 44 40
1.216083 2.863433 20.146006 55 60 54
1.278239 -7.723567 20.969975 254 255 254
1.317484 -7.086434 21.570446 88 105 78
1.311375 -6.986020 21.559948 236 236 228
1.356635 -3.442140 22.348051 155 153 154
1.349611 -2.763536 22.188356 159 155 152
1.350452 -2.271421 22.081766 160 156 154
1.344089 -1.389455 22.014307 155 155 157
1.041665 0.687990 17.182989 219 231 161
1.252787 1.609213 20.600508 73 100 78
1.285943 -7.799712 20.900455 248 241 247
1.269648 -7.220062 20.673315 207 221 194
1.326109 -7.135779 21.518064 197 202 188
1.320052 -6.906881 21.477091 172 187 165
1.325179 -6.817067 21.613195 124 140 124
1.363602 -6.850805 22.127785 138 145 113
1.058572 0.608958 17.233713 168 176 109
1.061995 0.763367 17.247269 191 199 137
1.058230 0.863241 17.295012 182 188 125
1.265519 1.493266 20.576138 111 120 89
1.276167 -7.245818 20.699018 197 208 182
1.363739 -6.633158 22.107595 156 144 170
1.367081 -6.468529 22.079445 238 240 211
1.381121 -6.232014 22.331139 211 212 196
1.404015 -5.987473 22.727388 150 146 133
1.396849 -3.520452 22.481506 158 152 154
1.181257 0.329212 19.131437 149 161 94
1.071013 0.535980 17.294338 107 118 60
1.329964 -7.613964 21.098602 249 240 245
1.343988 -7.151243 21.377991 208 201 197
1.381198 -6.534969 22.110699 228 221 225
1.377221 -6.342596 22.058134 184 181 167
1.353573 -1.227968 21.733688 152 150 152
1.077724 0.986263 17.241222 149 161 60
1.076435 1.033590 17.122959 126 136 73
1.296209 1.584387 20.621328 118 127 117
1.300526 2.178006 20.670549 134 141 112
1.287081 2.424259 20.512243 174 173 138
1.250025 2.954970 20.061373 41 50 43
1.303828 -7.116292 20.565779 155 178 152
1.396307 -6.780101 22.089643 240 232 218
1.438743 -6.085957 22.622620 151 147 136
1.435253 -5.980516 22.697323 149 146 132
1.413572 -3.276719 22.318651 121 115 115
1.420077 -1.661922 22.481625 156 155 160
1.389411 -1.461933 22.078318 154 154 156
1.094793 0.726366 17.271431 201 201 164
1.301155 1.737123 20.613026 124 136 119
1.291574 2.561065 20.427296 70 76 72
1.324107 -7.308102 20.635162 195 202 183
1.417513 -2.473110 22.186264 160 150 148
1.415403 -2.388204 22.158270 165 154 150
1.289156 -0.918708 20.268818 188 184 181
1.089977 1.065750 17.050568 140 154 83
1.316489 1.670680 20.572952 79 95 82
1.327909 1.889722 20.762934 70 75 65
1.320296 2.105389 20.722113 226 230 194
1.303253 2.774880 20.337250 123 123 113
1.418636 -6.614686 22.091902 97 110 79
1.447711 -6.067599 22.576788 151 147 136
1.442320 -3.209221 22.298300 107 95 86
1.428294 -2.710143 22.214098 142 128 115
1.423556 -1.421277 22.095251 152 151 156
1.295408 -1.001415 20.161249 207 202 199
1.378671 0.248042 21.392139 177 188 130
1.109182 0.761807 17.291889 163 171 122
1.121439 0.848485 17.332714 131 147 75
1.117116 0.973281 17.277800 113 120 60
1.114884 0.982892 17.255926 132 140 68
1.329231 2.397962 20.555099 92 92 87
1.327746 2.488655 20.529665 52 62 56
1.402021 -7.111099 21.445881 222 223 221
1.437602 -6.879486 22.053801 113 120 84
1.468730 -5.903978 22.646540 152 146 134
1.433984 -2.168383 22.086027 162 159 154
1.425808 -2.098581 22.051283 159 158 158
1.332666 1.663118 20.580980 86 95 82
1.344057 1.867243 20.679264 50 53 40
1.344182 2.056728 20.674314 121 120 111
1.343985 2.264195 20.634518 228 234 203
1.322769 2.733051 20.359552 130 132 121
1.312504 2.842577 20.191544 122 124 113
1.393556 -7.925182 21.254517 106 118 99
1.383658 -7.663692 21.038263 164 186 152
1.385568 -7.632452 21.141537 252 254 241
1.391498 -7.602354 21.155285 141 158 118
1.406794 -6.842876 21.428379 227 235 222
1.498953 -6.249873 22.797487 200 201 185
1.467904 -3.228645 22.320593 95 83 70
1.460510 -2.837755 22.223009 97 85 71
1.457129 -2.266357 22.131725 119 108 107
1.123447 1.026477 17.130331 72 80 26
1.345363 1.706365 20.557425 128 135 127
1.352896 2.305004 20.617216 47 43 40
1.348335 2.339139 20.601740 252 254 206
1.348347 2.417011 20.556440 119 112 109
1.341751 2.620125 20.438763 67 67 61
1.399485 -7.726549 21.026899 233 223 232
1.407619 -7.124701 21.283926 244 246 230
1.491561 -5.966888 22.560925 150 146 134
1.498489 -3.530133 22.588711 157 155 156
1.464075 -2.913949 22.227757 106 92 78
1.166867 0.510163 17.596796 148 165 86
1.142290 0.951310 17.305471 140 154 77
1.122758 1.113732 16.958546 142 151 94
1.371888 1.909478 20.675827 55 52 52
1.464298 -6.413394 21.985649 137 136 112
1.496849 -3.303153 22.366194 105 102 97
1.482949 -3.033693 22.243113 96 83 66
1.485687 -2.554856 22.228891 102 89 74
1.489373 -1.481059 22.181213 157 155 156
1.476142 -1.422382 22.115290 157 154 157
1.342428 -1.016019 20.203238 196 190 192
1.473425 -0.675681 22.009699 147 146 151
1.294959 0.269478 19.444725 175 189 116
1.149123 0.713131 17.132116 110 120 59
1.375305 1.539557 20.550194 164 167 141
1.372663 1.695941 20.539953 78 78 77
1.380749 2.233641 20.665089 232 234 200
1.377891 2.367985 20.603785 225 213 197
1.362433 2.571550 20.433262 44 49 48
1.364556 2.692681 20.406893 132 133 121
1.425193 -7.675247 21.020353 172 187 163
1.404948 -7.039659 20.759388 90 100 73
1.485872 -6.857978 22.074217 121 136 97
1.486242 -6.838777 22.067760 93 98 76
1.510749 -5.970245 22.533831 150 147 134
1.512299 -3.402468 22.406874 157 153 151
1.499837 -3.186360 22.304825 116 103 87
1.501236 -2.394569 22.198046 100 87 72
1.423712 -0.769755 21.067478 155 155 157
1.146610 1.080032 17.077023 122 131 77
1.389573 1.567251 20.512039 187 186 183
1.397041 2.104028 20.702492 211 211 206
1.391349 2.272077 20.655426 249 238 232
1.384568 2.340148 20.621716 250 245 214
1.467586 -7.066426 21.653452 111 118 105
1.472851 -6.829385 21.626818 180 204 195
1.506437 -6.771358 22.050531 162 153 152
1.516757 -3.165073 22.310871 108 95 77
1.504629 -2.417831 22.194565 118 105 88
1.499492 -2.073575 22.153746 154 152 153
1.516454 -1.509917 22.254726 156 156 159
1.167118 0.664362 17.205915 86 98 32
1.276556 1.344928 18.756578 82 88 71
1.394242 1.737344 20.527166 140 138 140
1.408561 2.182844 20.738998 108 113 93
1.403162 2.499743 20.573168 61 65 61
1.382950 2.839435 20.312401 132 133 127
1.506867 -6.290161 21.999300 218 213 204
1.530740 -2.696597 22.261213 94 77 57
1.523498 -2.517411 22.235092 124 111 93
1.495110 -0.715576 21.951426 149 148 152
1.515505 0.156843 22.030922 69 81 53
1.215742 0.439801 17.713530 132 147 73
1.189737 0.796237 17.357973 188 204 133
1.193107 0.844527 17.381186 135 148 42
1.415704 1.887503 20.633442 140 143 108
1.414189 1.938526 20.647985 207 206 175
1.417195 2.371932 20.624079 55 43 82
1.406597 2.788034 20.402496 132 133 127
1.375463 2.849226 20.034178 131 131 123
1.464832 -7.776635 21.054237 155 165 125
1.410726 -7.201262 20.400372 232 228 214
1.531966 -6.624811 22.139824 242 242 234
1.582084 -6.188646 22.699188 248 246 231
1.569656 -3.522961 22.607872 158 156 157
1.515611 -2.004536 21.973890 158 158 160
1.192316 0.521786 17.261135 69 82 15
1.197652 1.021594 17.184200 131 134 91
1.421662 1.598184 20.492628 63 65 59
1.426161 2.249712 20.691830 51 49 48
1.426255 2.313689 20.660559 58 57 52
1.418999 2.658029 20.539722 86 86 79
1.421775 2.775364 20.431143 132 133 127
1.482567 -7.107165 21.196781 245 237 238
1.580810 -5.933009 22.546337 151 147 136
1.581576 -5.899275 22.570318 151 148 136
1.555675 -3.167050 22.322538 109 93 77
1.564480 -3.092383 22.291674 113 99 90
1.529156 -1.546191 21.964235 158 156 159
1.528627 -1.388952 21.937191 154 154 156
1.535790 -1.340188 21.912197 154 154 156
1.522881 -0.827081 21.824774 170 169 172
1.542121 0.181275 22.076134 123 139 95
1.220007 0.924321 17.429564 90 104 42
1.196993 1.089300 17.078764 84 94 56
1.454911 2.182994 20.764507 138 146 121
1.448376 2.442133 20.612204 171 177 152
1.583633 -6.099765 22.597719 187 188 167
1.569988 -3.130594 22.316839 102 88 77
1.551574 -2.211934 22.152138 154 150 154
1.554045 -1.795163 22.066256 157 155 160
1.546982 -1.588003 22.024513 158 153 157
1.533551 -1.429701 21.969601 157 157 159
1.551096 -1.225270 21.944984 153 153 155
1.539725 -0.869692 21.876596 176 174 175
1.535491 -0.714700 21.882811 147 146 151
1.327529 0.319806 18.868176 133 143 67
1.223526 0.475732 17.374496 113 125 63
1.213746 0.713342 17.237967 66 81 35
1.215448 0.996799 17.301489 97 104 51
1.445363 1.626840 20.512619 203 203 177
1.439242 1.733914 20.521008 193 202 167
1.439100 1.812345 20.552532 119 122 99
1.456479 2.112030 20.752560 137 143 122
1.458648 2.285440 20.682507 234 230 208
1.453069 2.338990 20.661343 224 220 189
1.447674 2.797789 20.461708 131 132 126
1.570767 -6.684125 22.081833 248 248 246
1.582232 -6.233324 22.267767 253 250 243
1.573156 -2.404607 22.221111 102 86 70
1.568261 -2.111486 22.174356 155 153 154
1.323818 0.238658 18.685925 172 196 87
1.262429 0.411786 17.734062 107 126 48
1.231163 0.491425 17.340021 157 174 94
1.225536 0.653962 17.188940 103 122 50
1.215074 1.098315 17.131880 166 172 147
1.458059 1.665046 20.526583 180 176 157
1.470057 2.236152 20.708105 219 214 195
1.465518 2.385092 20.625629 182 175 180
1.463654 2.688478 20.531113 106 118 110
1.476059 -7.015445 20.556479 185 194 174
1.484352 -7.013971 20.692095 135 143 123
1.530830 -7.049440 21.264002 253 245 247
1.603842 -2.910275 22.302681 110 96 88
1.592594 -2.669071 22.271603 112 96 81
1.577529 -1.905875 22.152443 156 154 155
1.585376 -1.827434 22.165054 156 154 157
1.582238 -1.725683 22.152149 155 155 157
1.581068 -1.604707 22.152521 156 154 157
1.577686 -0.636631 22.045443 148 148 150
1.250412 0.888563 17.466793 125 139 69
1.239853 1.178591 17.293690 73 77 62
1.475732 1.906207 20.608067 108 104 83
1.475969 2.022871 20.603807 235 228 214
1.476354 2.035460 20.608315 251 248 222
1.531937 -7.636557 21.175461 234 236 220
1.531414 -7.108768 21.190115 250 248 242
1.538108 -7.002491 21.224962 110 113 120
1.590224 -7.047741 21.957655 251 251 249
1.587413 -6.847321 21.974190 202 201 174
1.635747 -5.881087 22.636156 152 149 140
1.625597 -3.478039 22.577272 157 155 156
1.603077 -2.993119 22.310673 111 98 82
1.596308 -1.172657 22.080412 153 153 155
1.480825 1.600456 20.522093 55 51 55
1.533109 -7.707183 21.068239 208 212 189
1.491665 -7.070083 20.409315 190 195 166
1.544985 -7.073153 21.206276 84 92 98
1.572474 -7.053296 21.589703 222 222 213
1.607267 -6.484261 22.037794 251 250 245
1.626885 -3.100763 22.256227 107 98 80
1.614952 -3.043947 22.211445 112 98 85
1.628494 -2.023565 22.260380 154 154 155
1.613184 -1.262958 22.134291 155 153 156
1.275788 0.985095 17.490072 90 97 52
1.268937 1.043391 17.418505 94 100 50
1.490685 1.641435 20.513390 196 192 186
1.510275 2.193974 20.707773 178 170 161
1.479427 2.864592 20.380898 133 133 131
1.553646 -7.887038 21.211874 212 215 201
1.610930 -6.705760 21.949062 198 176 214
1.630544 -6.279160 22.113859 245 244 235
1.660085 -6.043433 22.607508 229 231 210
1.647321 -3.257134 22.340599 99 86 69
1.642657 -3.156995 22.287119 107 94 77
1.636616 -2.472605 22.260468 106 93 77
1.635760 -2.067738 22.268789 157 155 158
1.622089 -1.013110 22.099869 173 172 172
1.372912 0.307689 18.662230 129 144 70
1.280505 1.172047 17.332575 56 63 47
1.509322 1.877305 20.574003 80 75 67
1.520956 2.818262 20.695829 137 138 130
1.612851 -7.036211 21.810389 252 252 250
1.676635 -5.927690 22.599747 152 149 137
1.650617 -3.102405 22.283583 108 98 80
1.650258 -2.924572 22.259439 105 93 82
1.651241 -2.854312 22.279428 95 81 68
1.649702 -2.692937 22.285391 104 87 69
1.641091 -2.451499 22.258240 114 103 86
1.635724 -0.843034 22.143263 185 184 182
1.273399 0.575467 17.151304 164 179 100
1.518024 2.028606 20.596954 131 118 119
1.489908 2.530718 20.084213 59 67 65
1.542231 2.859108 20.809351 137 138 130
1.578667 -7.610872 21.069164 184 182 188
1.661040 -6.427927 22.097914 253 249 245
1.687649 -6.102718 22.645115 247 245 232
1.697965 -3.515311 22.642485 155 155 155
1.671532 -3.313690 22.377100 115 111 109
1.667580 -3.023432 22.226017 116 104 87
1.671976 -2.618537 22.282394 113 99 86
1.652394 -2.561565 22.238457 96 83 67
1.667784 -2.150203 22.302284 156 153 155
1.651251 -1.407618 22.219677 158 156 157
1.660076 -1.249346 22.186365 154 152 153
1.644837 -1.004415 22.132099 172 168 168
1.355915 0.363113 18.169119 119 132 62
1.278053 0.553478 17.174984 134 148 66
1.268627 0.643613 17.025105 105 115 55
1.540298 1.730590 20.558912 133 135 112
1.539258 1.967499 20.603271 64 52 61
1.654644 -6.581559 22.074339 250 247 241
1.702836 -5.881848 22.729799 154 151 142
1.682799 -3.438374 22.460505 159 156 158
1.672506 -3.147274 22.283443 105 92 75
1.674540 -2.305159 22.310619 127 111 95
1.677806 -2.205104 22.319286 157 156 156
1.672366 -0.949931 22.147379 163 158 160
1.309229 1.107080 17.346737 184 184 162
1.306577 1.248680 17.387800 224 219 205
1.543286 1.830476 20.580782 179 172 159
1.558994 2.342499 20.643427 61 68 60
1.647331 -7.057427 21.775635 254 255 250
1.644931 -6.791276 21.690619 89 105 90
1.716314 -6.173385 22.682230 241 236 230
1.686931 -2.968158 22.256374 105 93 82
1.687700 -2.711407 22.317850 110 93 72
1.338102 1.015542 17.560057 101 101 77
1.319921 1.179021 17.401663 130 137 124
1.564432 2.652575 20.529057 70 73 65
1.614322 -7.792128 21.081337 246 246 245
1.550539 -7.119103 20.329266 167 176 161
1.629591 -7.005116 21.322901 229 224 225
1.686662 -6.432927 22.010647 255 254 250
1.739450 -6.006803 22.639977 223 224 204
1.757114 -5.881853 22.907276 149 149 141
1.708126 -2.587048 22.294144 90 78 64
1.422552 0.263796 18.678118 158 177 82
1.338523 1.027501 17.552496 175 175 153
1.619144 -7.004275 20.974174 112 135 137
1.632624 -6.946613 21.074375 254 252 253
1.701713 -7.084867 21.948814 254 254 252
1.682592 -6.609570 21.793673 143 140 130
1.717223 -3.090277 22.268280 108 94 81
1.716425 -2.894860 22.304121 112 100 84
1.715400 -2.506671 22.287060 99 85 74
1.714319 -0.744468 22.201283 171 168 165
1.720195 -0.220471 22.242748 143 144 148
1.354072 0.926799 17.683649 97 107 49
1.590389 -6.967085 20.462849 179 188 180
1.689732 -6.709027 21.829714 199 218 192
1.777139 -5.835696 22.920860 149 147 139
2.224263 -7.357290 28.897905 150 150 139
1.731608 -3.239204 22.288212 101 88 71
1.740339 -2.270857 22.399605 171 156 147
1.729184 -1.816885 22.304094 157 154 151
1.730708 -1.718120 22.309269 162 157 154
1.732590 -1.435512 22.286543 155 154 153
1.723976 -0.886318 22.189983 167 163 164
1.719797 -0.739389 22.204439 175 170 168
1.726641 -0.541765 22.227940 148 145 150
1.741599 0.040484 22.523209 142 144 142
1.777237 0.109633 22.876486 127 130 119
1.316346 0.719532 16.969221 173 189 111
1.584240 -6.963254 20.261238 139 124 128
1.703103 -6.337441 21.742483 250 249 244
1.780815 -6.295088 22.739277 243 239 230
1.779986 -6.163245 22.707563 246 242 231
1.753750 -1.967885 22.328892 149 137 130
1.425755 0.399286 18.186245 115 133 60
1.374035 0.992944 17.568575 189 185 171
1.378579 1.193360 17.543732 108 115 100
1.599796 2.651334 20.502733 68 71 61
1.601815 2.777652 20.460533 137 136 131
1.569085 -7.167037 19.809692 125 127 143
1.592908 -7.011625 20.209154 166 185 160
1.698524 -6.765522 21.570004 94 116 90
1.728336 -6.557538 21.866098 168 156 161
1.794146 -6.382469 22.737108 253 249 241
1.757571 -3.415673 22.327799 161 158 156
1.750526 -3.382527 22.329885 157 157 152
1.766706 -1.917084 22.332916 140 127 120
1.762952 -1.893884 22.330099 154 143 136
1.752275 -1.286397 22.254381 155 149 146
1.401288 0.892227 17.803669 112 121 64
1.498197 1.504908 18.961214 159 162 137
1.624254 1.928844 20.580326 197 195 194
1.642037 2.358478 20.774084 64 70 59
1.608008 2.591293 20.397900 52 56 53
1.617924 2.881551 20.428547 136 136 124
1.709087 -8.019700 21.526009 245 245 245
1.646495 -6.853615 20.748672 219 218 213
1.799116 -6.013506 22.653568 245 242 228
1.772511 -2.928501 22.297365 106 91 72
1.772502 -1.608737 22.320398 147 136 130
1.771481 -1.549533 22.315647 147 137 132
1.450582 0.275191 18.284014 101 125 31
1.452040 0.339642 18.278128 127 143 66
1.405660 1.274379 17.697763 129 121 117
1.631828 1.732181 20.565357 75 66 73
1.628129 1.820885 20.560535 170 172 157
1.655628 2.309691 20.908173 74 76 64
1.627860 2.713896 20.469196 134 138 124
1.698601 -7.965107 21.185251 245 247 246
1.747913 -7.024695 21.839058 248 248 246
1.731457 -6.754069 21.677490 211 196 219
1.739992 -6.596999 21.770475 193 188 174
1.742541 -6.367862 21.779942 251 249 244
1.741056 -6.302881 21.736750 255 251 247
1.820830 -6.285077 22.725813 235 231 220
1.806527 -5.904239 22.561930 207 209 188
1.791436 -1.974427 22.354656 116 102 96
1.800485 0.063610 22.434437 112 109 95
1.782645 0.169369 22.119732 150 165 113
1.458030 0.386482 18.194544 94 108 45
1.656068 2.068952 20.628431 56 58 51
1.832155 -6.392967 22.669403 253 248 244
1.808159 -2.697129 22.386074 76 59 42
1.797111 -2.633765 22.360191 78 61 51
1.806042 -2.479841 22.370604 114 96 81
1.803451 -2.418651 22.375166 110 90 66
1.809370 -2.095465 22.385662 88 77 71
1.800365 -1.345397 22.312086 113 103 96
1.787519 -0.630523 22.253506 121 113 103
1.793850 -0.419207 22.272068 120 111 103
1.797320 -0.213172 22.347729 125 117 110
1.804478 -0.113281 22.402687 103 97 93
1.811550 -0.026109 22.422886 109 107 98
1.472402 0.249603 18.351187 147 168 66
1.424865 1.037539 17.685699 170 168 145
1.670089 -6.867683 20.547184 198 194 195
1.742027 -6.768526 21.468237 244 248 236
1.836570 -5.969759 22.594702 246 242 231
1.839812 -5.555759 22.631561 157 153 144
1.807651 -3.107318 22.254307 104 92 77
1.804957 -2.992308 22.228582 106 93 76
1.820287 -2.758028 22.376560 121 99 68
1.807719 -2.589342 22.361595 95 76 62
1.813819 -2.555786 22.363209 67 49 35
1.817874 -2.282584 22.450281 82 71 51
1.809779 -1.417643 22.322857 92 82 80
1.806352 -1.235675 22.261330 96 88 85
1.810976 -0.829218 22.249523 103 98 90
1.798670 0.153764 22.142740 147 154 111
1.472836 0.440716 18.089727 166 181 106
1.461586 0.855786 18.015373 86 99 40
1.443480 0.864050 17.807451 96 105 45
1.677979 1.913631 20.613993 94 95 84
1.691620 2.402332 20.816687 55 60 54
1.692115 2.419677 20.823498 51 56 52
1.649582 -6.989892 20.169510 139 152 131
1.816465 -3.119363 22.260483 102 91 73
1.823376 -1.833058 22.355249 72 68 64
1.818187 -1.265029 22.291512 82 75 71
1.822054 -0.487536 22.291506 79 72 70
1.499535 0.277088 18.336512 176 195 107
1.487971 0.419449 18.230829 104 120 46
1.697903 2.314628 20.751926 78 78 66
1.688030 2.439105 20.575329 73 75 69
1.673500 2.665271 20.463810 87 95 80
1.677688 2.824450 20.481258 138 140 126
1.856876 -5.594459 22.503937 152 149 142
1.839969 -3.218459 22.290514 104 87 73
1.836678 -3.032929 22.222200 107 94 78
1.843008 -2.884485 22.361822 101 88 80
1.837931 -1.532651 22.345392 87 83 79
1.835939 -1.031263 22.259169 81 72 71
1.858952 0.109803 22.497091 65 70 47
1.507297 0.518092 18.214270 150 161 80
1.490399 0.753921 18.082558 116 131 75
1.469626 0.901059 17.830442 85 94 52
1.691973 1.999103 20.567499 85 92 75
1.686936 -6.961350 20.209337 215 215 205
1.690181 -6.943295 20.350760 166 170 150
1.815556 -6.595599 21.822689 174 156 153
1.889812 -6.230538 22.688564 244 240 231
1.872916 -5.856424 22.596346 204 207 186
1.853123 -2.760553 22.394457 83 62 38
1.851839 -1.716239 22.370113 61 60 59
1.841240 -0.953245 22.259800 63 62 60
1.468026 0.965291 17.696270 78 86 77
1.481116 1.210696 17.874563 54 58 46
1.705979 2.253408 20.569447 63 69 63
1.707467 2.368069 20.516554 61 64 56
1.671039 -7.015148 19.884781 234 241 234
1.831337 -6.485845 21.830053 189 184 173
1.820877 -6.385333 21.791349 244 241 236
1.829886 -6.336926 21.868135 255 253 247
1.905126 -6.469295 22.710260 250 246 240
1.527868 0.653809 18.315359 90 94 16
1.605919 1.809839 19.144173 84 85 78
1.712440 2.587378 20.486944 56 64 61
1.712457 2.785317 20.373726 138 139 131
1.706902 2.838075 20.411345 137 138 130
1.721023 2.905035 20.565504 132 132 124
1.681603 -7.472188 19.940443 247 249 248
1.823212 -6.874525 21.551226 250 250 248
1.824897 -6.779386 21.556339 151 174 152
1.834002 -6.604133 21.820358 149 147 132
1.895722 -5.443555 22.456226 154 151 144
1.881539 -3.333115 22.372486 124 123 118
1.884189 -3.259216 22.342175 96 81 66
1.879074 -2.942117 22.300381 98 89 80
1.545406 0.239178 18.389189 121 146 42
1.531608 0.683033 18.190874 101 109 51
1.516119 0.856037 18.048521 79 88 34
1.755872 2.198026 20.788206 70 78 68
1.729111 2.438873 20.465687 67 73 70
1.721794 2.763128 20.380667 138 140 130
1.694603 -7.421260 19.945591 253 253 253
1.686880 -7.382544 19.884750 251 251 251
1.795401 -6.824340 21.170910 252 252 250
1.931327 -6.010813 22.684601 254 252 246
1.901672 -2.616083 22.419506 36 32 24
1.921948 -2.319640 22.511194 49 45 42
1.908960 0.073248 22.442678 40 52 8
1.551683 0.529603 18.332623 121 131 63
1.551784 0.549727 18.299910 137 146 79
1.562923 0.597787 18.421637 173 179 112
1.689410 -7.109077 19.790623 174 175 190
1.723622 -7.013889 20.169006 246 247 244
1.737726 -6.938772 20.320927 182 192 185
1.901938 -3.076886 22.247505 108 99 84
1.912263 -2.919938 22.288256 113 100 86
1.907308 -2.883613 22.355001 92 82 73
1.905367 -1.285521 22.349962 52 49 50
1.948817 -6.424969 22.628757 249 245 237
1.892994 -5.250509 21.987144 151 150 145
1.917302 -3.264176 22.327154 91 75 59
1.906869 -3.114365 22.273808 123 111 95
1.930343 -2.197399 22.474056 123 120 108
1.924718 -1.855702 22.401072 42 38 37
1.925714 -1.573262 22.393276 45 40 38
1.930424 -1.434978 22.383585 49 45 46
1.558285 0.758915 18.139551 136 142 76
1.470899 1.437924 17.055845 58 59 56
1.766192 2.303114 20.494394 78 80 70
1.768427 2.525139 20.429253 40 52 48
1.758223 2.597574 20.420403 50 52 51
1.761890 2.660165 20.408579 77 82 71
1.965765 -6.491524 22.635143 246 243 237
1.959244 -6.105316 22.607712 252 248 239
1.963679 -6.025974 22.651892 254 251 244
1.952669 -5.573138 22.488852 157 152 146
1.953701 -2.308812 22.524050 47 41 37
1.943742 -2.090147 22.445009 37 32 29
1.948200 -2.023741 22.439978 41 37 36
1.938090 -1.747743 22.409397 42 32 33
1.936963 -0.083123 22.306936 82 82 67
1.939572 0.024470 22.344303 58 65 28
1.599594 0.255423 18.456383 97 121 10
1.492034 1.273639 17.265640 62 69 54
1.599869 1.729837 18.332888 88 91 80
1.640172 2.252525 18.894730 62 69 62
1.728883 -7.186934 19.815420 171 167 188
1.783268 -6.785269 20.481998 195 190 194
1.903370 -6.690819 21.777687 238 241 234
1.954356 -5.446720 22.379179 153 150 143
1.965235 -3.455072 22.515488 160 160 162
1.944099 -2.926612 22.257612 114 102 91
1.950992 -1.679824 22.410753 37 31 33
1.951170 -1.393591 22.389376 37 32 33
1.959389 -1.101703 22.357801 45 36 39
1.573996 0.813778 18.010153 168 178 120
1.504431 1.316375 17.212709 125 127 108
1.646871 2.322327 18.868053 43 55 51
1.780461 2.596652 20.419418 52 53 52
1.896300 -6.744210 21.577230 194 193 175
1.980287 -6.185741 22.526144 253 247 238
1.978262 -5.755712 22.471199 212 214 194
1.955827 -5.230212 22.216459 153 152 148
1.965964 -3.199064 22.314230 100 86 72
1.966500 -2.614314 22.437716 46 36 30
1.976728 -2.564892 22.464376 55 50 39
1.974863 -2.417665 22.517775 50 44 38
1.971747 -1.309776 22.391884 39 34 33
1.978043 -0.752426 22.506762 40 35 36
1.596364 0.935049 18.120239 98 107 81
1.768070 -7.048260 19.955549 132 153 147
1.836067 -6.715477 20.698437 246 246 244
2.009355 -6.545708 22.641333 253 252 247
2.005209 -6.492007 22.644999 248 245 239
1.980628 -5.562256 22.397825 159 156 149
1.974485 -3.427347 22.470585 156 155 156
1.980819 -1.212539 22.386135 39 35 36
1.961646 -0.150348 22.213602 38 34 31
1.654755 2.164950 18.763334 58 59 51
1.804202 2.676219 20.402046 94 102 92
1.796161 2.744400 20.368540 139 140 126
1.792571 2.796527 20.287350 133 133 120
1.764030 -7.377565 19.804934 253 253 253
1.930566 -6.442601 21.703291 237 234 227
2.015671 -6.389552 22.611637 255 252 243
2.015642 -6.340150 22.595102 254 250 244
1.994129 -3.343063 22.366596 147 144 140
1.976010 -3.034981 22.210876 108 94 83
2.010395 -2.372034 22.622347 62 59 54
2.005572 -2.111402 22.578806 47 37 36
2.003904 -1.554934 22.495411 48 44 43
1.994121 -1.524687 22.459661 45 40 41
1.985666 -1.032117 22.382847 40 35 35
1.982386 -0.027157 22.304068 100 111 50
1.637368 0.376810 18.435591 88 113 17
1.584411 1.096012 17.810726 77 77 51
1.526703 1.418582 17.095844 130 141 72
2.028330 -6.548028 22.652061 250 249 244
2.019804 -6.238803 22.556427 242 236 228
2.010614 -5.452561 22.386665 153 151 146
2.001918 -5.373956 22.353369 152 151 146
2.005162 -5.140944 22.286291 156 155 151
1.995649 -5.073486 22.263277 155 154 150
1.986263 -4.800522 22.172491 156 153 149
2.030067 -2.725350 22.559900 50 42 29
2.015001 -2.653183 22.497576 56 52 41
1.653029 0.326697 18.463667 120 141 42
1.621528 0.858683 18.088247 107 115 65
1.534683 1.600991 17.098755 71 72 65
1.717663 2.167397 19.124744 84 85 77
1.801991 -7.296082 19.935970 195 215 201
1.834199 -6.849141 20.310240 88 91 102
1.953862 -6.564609 21.651154 240 239 234
2.034961 -6.315223 22.588326 243 238 232
2.012960 -5.288411 22.332741 154 151 146
2.010388 -5.179969 22.302774 157 156 152
2.018321 -2.803896 22.447796 115 99 68
2.039350 -1.864688 22.638479 50 47 48
2.018471 0.058105 22.283367 136 156 62
1.548029 1.334752 17.172235 170 176 129
1.709758 2.197771 18.970541 57 60 52
2.052783 -6.363065 22.599792 240 236 230
2.046917 -6.156835 22.566031 242 235 227
2.047244 -5.646745 22.463041 208 207 189
2.019812 -2.935024 22.265411 100 86 73
2.056981 -1.337929 22.640759 52 46 46
1.673871 0.448164 18.433947 121 139 49
1.669086 0.532790 18.418240 96 106 40
1.594117 1.205396 17.560089 163 171 129
1.975630 -6.611699 21.591919 240 239 234
2.059358 -5.955322 22.539530 241 240 229
2.042797 -5.134933 22.309914 155 151 147
2.077898 -3.527429 22.687578 157 157 159
2.044268 -3.369474 22.384775 160 160 156
2.029675 -2.911420 22.290421 108 98 82
2.068909 -2.010106 22.668705 45 39 41
2.084707 -1.775500 22.729431 43 39 38
2.083560 -1.713101 22.728090 43 38 39
2.048468 0.010585 22.317152 130 150 43
1.659962 0.646662 18.136053 125 131 74
1.635950 1.012196 17.831820 96 108 102
1.625225 1.126947 17.768801 76 82 35
1.578730 1.282090 17.264137 187 204 132
1.744422 2.153836 19.072109 54 57 53
1.865871 2.592726 20.373150 48 52 48
1.913757 -6.802199 20.753736 175 169 175
2.086474 -6.295290 22.582544 247 241 225
2.072655 -6.074622 22.552042 251 247 235
2.066828 -5.835924 22.531862 230 225 214
2.058430 -3.222121 22.334303 99 87 71
2.053033 -3.168841 22.304316 108 96 83
2.046544 -3.146200 22.295145 104 92 80
2.047977 -3.053405 22.249535 100 88 76
2.081729 -2.063966 22.664579 49 49 47
2.094530 -1.530865 22.692570 40 36 34
2.092594 -1.474262 22.680197 42 38 35
2.055418 -0.064971 22.334188 129 136 70
1.664397 0.813257 18.032610 137 149 89
1.583054 1.356992 17.135563 163 169 120
1.765668 2.127816 19.118887 69 72 64
1.761381 2.185596 19.111311 80 85 77
1.756346 2.263288 19.070028 50 55 49
1.763248 2.346781 19.095289 49 57 50
1.860632 -7.382649 19.999104 112 108 115
1.950366 -6.744417 21.021357 236 236 234
1.942863 -6.670468 21.025471 234 234 232
2.102364 -6.523695 22.668671 237 237 225
2.088960 -5.735518 22.505203 241 236 221
2.060100 -4.965630 22.244396 157 157 153
2.096079 -1.410777 22.664438 41 37 37
2.091646 -1.233073 22.649557 39 35 34
2.090435 -1.161209 22.627724 43 38 36
2.093884 -1.101414 22.601057 39 33 33
2.100098 -0.867675 22.618141 41 36 35
1.759947 0.162904 19.034145 120 141 48
1.875781 2.642394 20.239079 77 85 71
1.861427 -7.274629 19.993513 181 178 195
1.910285 -6.854871 20.450941 169 161 171
2.005724 -6.425499 21.459118 245 243 239
2.082194 -5.363757 22.359175 153 151 145
2.117547 -3.512222 22.665628 156 156 156
2.068759 -2.873479 22.238523 87 78 68
2.133690 -2.549457 22.859539 42 37 37
2.108694 -1.323981 22.641098 43 40 36
1.994202 -0.173046 21.356525 46 46 33
1.611732 1.242728 17.284708 68 84 28
1.897602 2.877954 20.306292 135 137 126
1.906293 -7.005555 20.341372 197 196 204
2.123502 -6.402244 22.615803 254 253 243
2.106164 -5.623794 22.439501 228 226 204
2.079697 -2.945377 22.219603 109 97 81
2.118078 -2.775681 22.598633 81 69 46
2.138199 -1.632180 22.734398 41 36 30
1.748731 0.259252 18.594131 136 153 50
1.727065 0.506099 18.444765 114 125 56
1.649825 1.146052 17.563381 121 134 79
1.605739 1.409259 17.056416 148 153 113
1.597983 1.447421 17.025726 239 244 191
2.024319 -6.550686 21.510128 242 241 236
2.136674 -5.943052 22.552212 255 255 246
2.115059 -5.172778 22.345484 145 145 140
2.101385 -5.013042 22.282457 153 149 146
2.160925 -2.626239 22.873365 45 40 37
2.151106 -1.864314 22.752237 45 43 44
2.133478 -1.103720 22.614136 40 35 31
1.761270 0.302621 18.608612 168 185 80
1.695413 0.940233 17.952051 155 157 108
1.613351 1.375097 17.090498 212 211 166
1.652741 1.823330 17.547972 102 112 63
1.893484 -7.390278 19.938408 115 144 129
1.917945 -7.156884 20.115170 99 97 87
2.137144 -5.640201 22.466579 245 247 230
2.160891 -2.726768 22.833628 53 50 39
2.163998 -2.450066 22.828985 44 43 48
2.157490 -1.719049 22.738729 43 40 36
2.155164 -1.023764 22.639807 40 35 31
1.845923 0.002915 19.461355 132 151 65
1.836493 0.085613 19.377575 211 224 122
1.664286 1.184223 17.491766 141 157 99
1.602625 1.473562 16.817013 172 179 111
1.584191 1.567683 16.657942 180 188 103
1.958796 -6.878548 20.410906 160 156 161
1.984847 -6.693491 20.687658 240 240 240
2.118654 -4.819055 22.193283 155 154 151
2.134978 -3.256510 22.327339 98 83 62
2.127137 -3.143443 22.271063 118 104 91
2.131055 -3.059547 22.257481 107 96 86
2.181244 -2.015138 22.691525 46 43 42
2.169633 -1.448063 22.694954 50 46 46
2.166297 -1.137666 22.651901 50 44 44
2.162856 -0.866955 22.650917 42 38 35
2.131076 -0.706537 22.265095 41 37 34
2.049063 -0.192029 21.440149 45 53 15
1.822632 0.138490 19.025082 190 210 114
1.730365 0.740676 18.051743 156 168 60
1.842681 2.197266 19.203827 80 82 69
1.838190 2.371447 19.240442 59 65 59
1.919861 2.805833 20.092972 137 138 128
2.055602 -6.665339 21.418816 243 242 240
2.180740 -6.473927 22.657888 179 166 159
2.188270 -6.384014 22.650003 160 136 142
2.163762 -5.564784 22.454662 238 236 216
2.142640 -2.995396 22.233225 112 102 87
2.180033 -2.156007 22.717302 53 51 46
2.188342 -1.788144 22.751169 47 41 41
2.179938 -1.329147 22.673374 50 44 44
1.763303 0.582746 18.297140 130 135 75
1.739159 0.681101 18.016529 165 172 116
1.849236 2.463371 19.233196 59 60 57
2.089887 -6.564962 21.552399 245 246 240
2.216530 -2.616765 22.801916 49 44 40
1.817953 0.391048 18.697939 123 130 71
1.740857 0.844894 17.961245 168 171 116
1.746281 0.908586 17.947783 145 146 109
1.712647 1.102424 17.695137 91 107 51
1.656612 1.307269 17.144629 211 224 153
1.871278 2.277449 19.225580 54 55 48
1.956656 -7.410254 20.065418 180 185 186
1.972655 -7.268463 20.178635 251 249 249
2.108400 -6.539698 21.644321 246 246 238
2.026836 -6.196537 20.764341 250 247 240
2.220827 -6.702726 22.785961 251 250 245
2.212394 -6.549757 22.700647 248 247 240
2.202306 -6.157045 22.580992 194 168 145
2.161977 -2.745278 22.244753 79 67 46
2.219317 -2.535006 22.788301 43 40 43
2.220104 -2.357635 22.762522 66 61 65
2.213989 -1.880212 22.717157 45 41 40
2.217812 -1.719155 22.760494 43 38 38
1.907070 -0.107886 19.570843 121 134 48
1.660814 1.355866 17.035198 180 184 125
1.629036 1.465497 16.718174 215 210 162
1.629334 1.499082 16.695168 125 116 80
1.979315 -7.231981 20.201088 96 105 87
2.021624 -6.851561 20.613333 101 103 93
2.213037 -6.282404 22.608883 199 180 149
2.219683 -6.054269 22.583096 192 172 144
2.216908 -5.927652 22.581806 202 184 159
2.173210 -4.832032 22.210932 153 153 150
2.223019 -2.270824 22.729441 65 65 65
2.225624 -1.574989 22.703348 36 34 35
2.222268 -1.421219 22.680811 35 32 29
2.220664 -1.340265 22.681963 44 38 38
2.221932 -1.132030 22.710321 37 33 32
2.222714 -0.876502 22.700197 37 33 30
1.922444 -0.156546 19.568794 62 73 22
1.834599 0.446287 18.692575 125 134 69
1.766684 0.871035 17.991650 89 89 52
2.013914 -7.093062 20.396294 188 178 169
2.248303 -6.478949 22.699831 161 145 120
2.222005 -5.713438 22.517597 213 191 166
2.218352 -5.595613 22.474342 232 212 184
2.207530 -5.346144 22.392231 107 92 77
2.211863 -5.204992 22.400396 107 95 85
2.194309 -4.991498 22.288174 120 103 98
2.203275 -3.283332 22.342062 112 96 77
2.191928 -3.146657 22.263744 102 90 80
2.229796 -1.272855 22.642866 40 35 33
2.234696 -1.211794 22.634932 39 34 31
2.228448 -1.155348 22.646152 38 33 32
1.928652 -0.001571 19.542761 135 157 59
1.688914 1.253073 17.161970 136 149 72
1.653096 1.417274 16.759912 203 192 153
1.647060 1.632204 16.651480 122 108 66
2.051687 -6.639811 20.630032 179 174 180
2.075859 -6.516330 20.841879 240 240 238
2.220049 -5.112761 22.363564 110 96 85
2.209425 -3.060003 22.214138 103 89 75
2.204670 -2.931062 22.178593 109 95 81
2.201355 -2.883474 22.161873 103 94 82
2.199172 -2.776818 22.109320 110 93 65
2.251362 -2.647574 22.663889 43 34 32
2.257433 -2.321861 22.738350 44 42 47
2.263601 -1.806798 22.686310 49 41 38
2.244322 -1.572251 22.681911 39 34 34
1.933926 -0.213364 19.524902 62 67 24
1.946871 -0.154373 19.572248 150 164 86
1.883661 0.194015 18.940538 134 152 64
1.743034 0.962927 17.545744 92 93 51
1.908413 2.510591 19.176622 74 75 61
2.014404 -7.341613 20.166058 216 209 235
2.036270 -6.980070 20.420578 176 183 174
2.265640 -6.192848 22.610207 194 175 141
2.248232 -5.818943 22.538273 224 204 166
2.247881 -5.676360 22.510345 228 207 169
2.212581 -3.076191 22.204391 112 98 81
2.259788 -2.017089 22.642067 46 41 40
2.268232 -1.403569 22.668032 34 30 28
1.876123 0.313014 18.819468 148 167 82
1.864790 0.525616 18.680199 138 147 80
1.789455 0.701398 17.930582 114 124 65
1.750701 0.760880 17.533888 179 191 128
1.985842 3.009263 19.875919 177 172 153
2.273824 -5.997540 22.608904 215 190 149
2.275284 -5.970525 22.607147 186 162 122
2.237834 -4.847326 22.250757 154 154 154
2.234612 -3.502597 22.313171 160 158 159
2.275931 -2.312509 22.755703 49 47 53
2.284273 -2.138936 22.694204 47 44 37
2.273253 -1.915350 22.629339 47 42 38
1.923776 0.118467 19.208139 173 183 114
1.887831 0.222102 18.814278 169 181 105
1.879413 0.576071 18.713385 155 166 98
1.766178 1.084381 17.613705 62 75 28
1.938541 2.166017 19.217871 86 71 51
2.042625 -7.399156 20.148035 152 168 119
2.097708 -6.532861 20.817390 247 248 243
2.277553 -5.731602 22.533298 194 170 136
2.273376 -5.585111 22.484894 163 138 105
2.263227 -5.387376 22.405613 116 100 87
2.227432 -2.750465 22.091515 95 80 54
2.305874 -2.487730 22.802982 40 40 43
2.290008 -1.718339 22.693312 37 35 33
2.286117 -1.698845 22.696146 34 35 33
