# .PCD v0.7 - Point Cloud Data file format
VERSION 0.7
FIELDS x y z rgb
SIZE 4 4 4 4
TYPE F F F F
COUNT 1 1 1 1
WIDTH 1014
HEIGHT 1
VIEWPOINT 0 0 0 1 0 0 0
POINTS 1014
DATA ascii
0.96649301 0.97838491 1.0596309 7.9205299e-39
1.0440773 0.96954906 1.2206804 8.4740554e-39
1.2703899 0.99936825 1.3244219 6.8141683e-39
1.8819517 1.354295 -1.2845856 1.474839e-38
-1.148685 0.99928653 -1.1438178 1.9999214e-38
-1.1308216 0.99952477 -1.0817122 1.8981106e-38
-0.89695418 0.88442892 -0.79899216 1.0036677e-38
-0.65782309 0.97533935 -0.61834538 9.4010466e-39
-0.58234388 0.99702984 -0.56479609 1.4852121e-38
-0.53303117 0.9995811 -0.51972038 4.6054431e-39
-0.36320114 0.99949563 0.19642353 1.1334278e-38
0.39352605 0.99574375 0.5594669 8.8421008e-39
0.57052767 0.9943586 0.59721929 7.2722612e-39
0.78491879 0.97971481 0.79160887 1.0411604e-38
0.92809743 0.99931014 1.0209228 1.2814451e-38
1.0013998 0.98101425 1.0097133 1.0964065e-38
1.1224723 0.99867809 1.135043 1.2898728e-38
1.0707145 0.99851286 1.0843091 3.6856336e-39
1.38047 0.99857581 1.4363958 9.9524239e-39
1.455748 0.99584633 1.4698426 2.1655858e-38
1.473503 0.93826967 1.5195136 9.1212171e-39
1.5095186 0.98187762 -0.98189175 1.3913588e-38
-0.93166876 0.99923825 -0.91432214 8.8543804e-39
-0.66498649 0.95562351 -0.65762609 9.7680424e-39
-0.76688945 1.2802892 -0.73523045 8.842454e-39
-0.62707049 0.99314916 -0.61583066 9.8573289e-39
-0.55934364 0.94301009 -0.55487859 1.29873e-38
-0.34478313 0.9995479 -0.33699539 1.5935388e-38
-0.32780012 0.9974314 -0.12381604 2.0452974e-38
-0.11056281 0.96441895 -0.055439051 1.5294361e-38
-0.026006334 0.9892807 0.39230332 6.8148872e-39
0.39022154 0.93388551 0.52222395 4.6979876e-39
0.52846283 0.99837118 0.58706975 3.5009228e-39
0.75118691 0.9982776 0.98515159 1.335932e-38
0.99175465 0.99885899 1.029134 2.2675421e-38
1.1842726 0.99293894 1.2093465 9.2148588e-39
1.1452818 0.98871899 1.3978002 5.3466052e-39
1.4059504 0.99939322 1.4792105 1.2253713e-38
-1.1006572 0.99881089 -1.0382216 1.7878366e-38
-1.0069519 0.99150217 -0.62133443 6.0773446e-39
-0.54980248 0.91985643 -0.53157651 6.1727856e-39
-0.3667489 0.99876595 -0.17505594 1.0504143e-38
-0.054687813 0.99252987 -0.045578774 7.0007232e-39
0.0036345702 0.95083404 0.49671304 1.8522287e-38
0.72701943 0.97397602 0.74018168 1.8058452e-38
0.91314912 1.2245997 0.93391764 1.0504856e-38
1.0430392 0.99645025 1.1983119 1.6139983e-38
1.5426495 0.99064732 -0.97001171 2.3504442e-38
-0.94321024 0.99690878 -0.93169725 1.7229391e-38
-0.86981142 0.96354848 -0.85737902 1.0319397e-38
-0.82674205 0.97444212 -0.6202569 7.2837897e-39
-0.56442779 0.99899209 -0.5541898 6.8163319e-39
-0.54175311 0.99409825 -0.23809259 8.844633e-39
-0.23253414 0.97611326 -0.032730211 1.0037767e-38
0.25292954 0.97135025 0.25911993 1.0129963e-38
0.38255513 0.99957609 0.50969726 1.4919797e-38
0.87853694 0.99852109 0.98293513 1.318431e-38
1.0301054 0.99852765 1.1226972 1.5959907e-38
1.6547415 0.99595785 -0.93894207 9.3038539e-39
-0.80815792 0.93496317 -0.53569466 9.028332e-39
-0.52824616 0.99794871 -0.45286104 2.2487759e-38
-0.20942059 0.90235555 -0.18566556 8.0156108e-39
-0.12170804 0.99859506 0.036698364 2.3508042e-38
0.31953305 0.97601223 0.38614315 1.612378e-38
0.39246202 0.99957043 0.52241409 6.0838045e-39
0.52744913 0.99531937 0.539689 1.4282062e-38
0.58696932 0.990879 0.72811675 8.3793332e-39
0.71469069 0.98028779 0.88048583 1.6128793e-38
0.86956066 0.97362369 0.97105843 7.0932551e-39
1.0298672 0.97022951 1.0433934 2.2763638e-38
1.2778814 0.99836791 1.4257667 9.4853305e-39
1.4636244 0.99814826 1.4753267 1.3815982e-38
1.4021868 0.99421549 1.564236 8.010213e-39
1.5683576 0.99316388 -0.93871456 1.4746207e-38
-0.64514273 0.99874264 -0.64190978 1.290054e-38
-0.58107382 0.99854493 -0.57125121 9.3985256e-39
-0.54024434 0.99899817 -0.19344978 1.8336087e-38
-0.11348549 0.9992395 -0.051629644 1.3543429e-38
0.064502627 0.99899995 0.069615267 1.8153879e-38
0.33220306 0.9980033 0.33574808 1.428347e-38
0.45983702 0.99682093 0.63643318 1.050344e-38
0.65919966 0.99542832 1.0978842 1.1996927e-38
1.3528209 0.99200881 1.4072262 7.3680638e-39
1.6751477 0.99956304 1.6999722 8.1099532e-39
-0.92969579 0.99891174 -0.92510623 2.3502631e-38
-0.91412044 0.99848127 -0.83042568 9.4881975e-39
-0.70363271 0.9969793 -0.62532926 2.1108813e-38
-0.54840863 0.99424124 -0.53840059 9.0283082e-39
-0.50529474 0.98978597 -0.50031143 6.7201776e-39
-0.47785679 0.99467891 -0.3151651 1.2445306e-38
-0.21134065 0.95295429 -0.2031951 2.6729544e-39
-0.17281711 0.98825562 -0.051082302 6.3539286e-39
-0.029606098 0.99968338 -0.0014756821 6.0780494e-39
0.066064 1.2727994 0.52955216 1.3360425e-38
1.0205148 0.99397147 1.0933002 9.6729489e-39
1.076924 0.99955964 1.2623731 1.1696296e-38
1.2682145 0.989434 1.2967471 1.6489666e-38
1.4466296 0.97932667 -0.67422485 1.1242084e-38
-0.56197459 0.99776292 -0.54156035 1.0319425e-38
-0.65150565 0.99413753 -0.57733649 7.2751857e-39
-0.22446424 0.9393571 -0.21521671 1.6404658e-38
-0.18394715 0.99778587 -0.088906631 1.9998848e-38
-0.054125864 0.98873043 -0.044796754 6.6287009e-39
1.0159643 0.99550182 1.0374277 1.8615928e-38
1.2928727 0.95822269 1.4738265 1.5775869e-38
1.432542 0.97562176 1.4386771 6.2591995e-39
1.8914788 1.362534 -0.78878111 1.2067514e-38
-0.66219807 0.96510249 -0.59168261 1.1056591e-38
-0.57767141 0.99881369 -0.49671671 2.0090342e-38
-0.30000243 0.9704529 -0.19876304 1.9443512e-38
-0.17177488 0.99843597 -0.15687761 1.1609063e-38
-0.11101117 0.99336821 -0.082952164 5.339404e-39
-0.0071464344 0.97191459 0.031555682 1.0226125e-38
0.088251591 0.99007642 0.12721804 1.1520467e-38
0.43410182 0.98653281 0.49607727 1.9460464e-38
0.69471395 0.99924564 0.70463693 1.188528e-38
0.71682692 0.97042853 0.72797608 1.7325541e-38
1.3018321 1.2849997 1.3582733 9.9509805e-39
1.3297118 0.95933121 1.3743792 6.4457417e-39
1.3472583 0.98621613 1.3839833 1.050417e-38
1.4114883 0.99432915 1.4547909 1.0135739e-38
1.4566329 0.99595082 1.7370288 4.2363312e-39
-0.70247722 0.98784256 -0.65821838 2.1844916e-38
-0.58079016 0.99605602 -0.48951688 7.9201641e-39
-0.46731418 0.99935138 -0.44681913 1.6952788e-38
-0.42712948 0.97693861 -0.41876212 1.5296882e-38
-0.141762 0.99679095 -0.1383058 1.1243875e-38
-0.10647203 0.99518359 -0.087405458 1.0313718e-38
-0.062915735 0.99926853 -0.038466141 1.9353476e-38
0.053222276 0.99695355 0.071586892 8.4740596e-39
0.11438108 0.90034986 0.50198454 6.3513839e-39
0.54781234 0.99864292 0.55622464 1.7047512e-38
0.59565932 0.99665868 0.71998858 3.0421041e-39
0.73519534 0.99735981 0.75420624 1.9077258e-38
1.0130169 0.98408842 1.0342537 1.6678058e-38
1.2073683 0.96449775 1.2761878 1.1154564e-38
1.3457025 0.99679524 1.4797949 7.7418853e-39
1.4405262 0.99470866 1.5147747 1.365214e-38
-0.52117693 0.99181795 -0.51680309 1.023045e-38
-0.65437615 1.2830883 -0.63381243 6.2617162e-39
-0.59745497 0.98563504 -0.5639782 1.7875483e-38
-0.53852046 0.9859007 -0.53308982 2.0826828e-38
-0.50321853 0.97798431 -0.42821118 8.3789591e-39
-0.24190572 0.99444085 -0.22003055 1.7141172e-38
-0.16699143 0.99935585 0.018906698 4.6987149e-39
0.023786539 0.97574925 0.027424388 5.4326786e-39
0.10993191 0.99348265 0.14273828 7.3670268e-39
0.15086332 0.97428596 0.27299026 6.735676e-39
0.27043006 0.98008168 0.40159696 9.3052622e-39
0.41455033 0.99273574 0.45746091 1.5482333e-38
0.4613525 0.99325621 0.62550807 2.2950201e-38
1.2044065 0.99072927 1.2123307 1.3174965e-38
1.1234204 0.97915161 1.1351236 1.3357173e-38
1.1471006 0.99414635 1.3055574 8.9400628e-39
1.3337771 0.98286229 1.3691295 2.350594e-38
1.5239146 0.97880554 1.5566471 1.9351701e-38
1.5599759 0.99502683 -0.60739744 5.8886093e-39
-0.54957563 0.93442184 -0.50045246 8.0123948e-39
-0.62880462 0.98727793 -0.61413485 7.464581e-39
-0.57952589 0.99928695 -0.56679225 1.123991e-38
-0.53564382 0.99861699 -0.5285995 1.1331028e-38
-0.14405918 0.99503458 -0.12529704 1.7140781e-38
-0.0093021328 0.99955511 -0.0016927208 1.6862766e-38
0.0020321494 0.98836106 0.013020784 2.1103034e-38
0.068836972 0.90973902 0.1624091 8.8446442e-39
0.30090499 0.99922013 0.30789429 1.2896569e-38
0.51817805 1.1922933 0.57362425 1.8616299e-38
0.71015328 0.96927953 0.73697376 8.1096001e-39
1.0095279 0.99853188 1.0179727 1.2806158e-38
0.94015521 0.94097358 1.0054251 1.7690718e-38
1.0049567 0.99617535 1.0296923 8.3818499e-39
1.0842412 0.99951005 1.0937853 1.5013799e-38
1.4170903 1.2846187 1.4711596 8.0112668e-39
1.5353087 0.93310422 1.6697664 1.8154208e-38
-0.71798867 0.99954063 -0.67758632 8.5647811e-39
-0.6314109 0.97217757 -0.59531099 1.1327801e-38
-0.54999584 0.98350954 -0.51218849 7.7332898e-39
-0.4424347 0.99924344 -0.43761209 6.4439943e-39
-0.43156409 0.99703628 -0.40267447 5.8983371e-39
-0.20615317 0.99853176 -0.14517914 1.1900772e-38
-0.12828094 0.98955184 -0.091249727 1.0599232e-38
0.02978744 0.99489659 0.059573956 1.7693957e-38
0.15049326 0.97703207 0.16304089 1.5392315e-38
0.17420979 0.9950456 0.20307814 7.7436944e-39
0.27863678 0.99319756 0.32142863 9.3970879e-39
0.36251038 0.99916184 0.3879531 1.2341213e-38
0.48068595 1.3652598 0.54077983 1.9169436e-38
0.4793312 0.86651236 0.51681566 2.3509838e-38
0.54286331 0.98440588 1.0201813 1.7969845e-38
0.96772802 0.94500935 1.006453 8.9317825e-39
1.1265537 0.99810469 1.2442046 9.4821061e-39
1.4418156 0.94253027 -0.65057039 7.4584587e-39
-0.53197038 0.9889853 -0.52765876 1.6030871e-38
-0.52182633 0.99862301 -0.51176202 1.6776694e-38
-0.53934968 0.86572427 -0.51365536 1.1057678e-38
-0.46071312 0.99665749 -0.4555245 1.8063456e-38
-0.43571445 0.97193176 -0.41884595 9.1197751e-39
-0.19592746 0.98192948 -0.18378918 2.1287775e-38
-0.12723395 0.98168814 -0.1168841 1.2529559e-38
-0.061683539 0.99537188 -0.053590145 1.3361479e-38
-0.035644684 0.99880695 0.051123787 1.4647613e-38
0.071703888 0.99373007 0.11202512 1.916406e-38
0.10591409 0.88374537 0.12654614 1.926021e-38
0.15822084 0.97393572 0.27599767 9.0290354e-39
0.31663579 0.99944657 0.33897242 1.6880425e-38
0.43488118 0.97180969 0.48641026 7.6475429e-39
0.60977507 0.95161802 0.78031707 1.3178895e-38
1.0568998 0.98117989 1.1927977 8.4744113e-39
1.1666512 0.97510099 1.183139 1.9905562e-38
1.2072564 0.99681133 1.5100713 9.670456e-39
-0.64578587 0.97720611 -0.59246612 7.4588118e-39
-0.46266595 0.9836731 -0.45969096 1.2990188e-38
-0.52184582 0.93713003 -0.46645123 1.621559e-38
-0.45569319 0.99759173 -0.44997108 1.3182519e-38
-0.43280295 0.99881279 0.046887223 6.3589551e-39
0.080706947 0.95485514 0.14865305 6.5386772e-39
0.25331524 0.98822695 0.25910696 2.0276874e-38
0.29710007 0.98733866 0.34514132 9.5807561e-39
0.35644582 0.99128813 0.45408362 1.6032993e-38
0.43074289 0.99540675 0.46084356 2.3315008e-38
0.69701791 0.8822751 0.72591311 1.8982538e-38
1.0069103 0.99556947 1.0174398 1.2440611e-38
1.0177842 0.99875224 1.2141637 1.1329292e-38
1.2678156 0.99712849 1.3209169 7.7418867e-39
1.3183016 0.99866915 1.4181994 8.4733211e-39
1.3579617 0.93232298 1.4026308 1.5939004e-38
1.4639093 0.99701226 -0.73621023 9.2083694e-39
-0.77880037 0.89090019 -0.73826414 9.3938663e-39
-0.61583203 0.99914128 -0.580091 1.7318338e-38
-0.53417528 0.99471664 -0.52436137 1.9264146e-38
-0.49888188 0.99957991 -0.42252064 2.082826e-38
-0.39775112 0.99809283 -0.36686906 8.1020485e-39
-0.11419112 0.97736907 0.030477447 5.8997832e-39
0.08794912 0.99018407 0.092963725 2.3505938e-38
0.15767521 0.99898165 0.22033823 1.7509229e-38
0.31057054 0.99637526 0.31940475 1.1519396e-38
0.46804675 0.93667954 0.48476788 1.2165465e-38
0.54108894 0.99414247 0.57967186 2.3506256e-38
0.57924461 0.99658048 0.73429871 1.6955669e-38
1.2925925 0.99936342 1.3184385 1.0500249e-38
1.6120944 0.99752146 1.6293278 1.1329272e-38
-1.1580918 0.99359 -0.56196129 5.8929561e-39
-0.49365517 0.99908537 -0.45450321 8.1049099e-39
-0.41117212 0.99825317 -0.1366673 2.1382485e-38
-0.12014122 0.99544257 -0.11380464 2.3505882e-38
0.073295869 0.96858984 0.12664843 1.1056612e-38
0.13544124 0.99675387 0.16975479 1.5754984e-38
0.20434742 0.98254037 0.26319641 1.5668166e-38
0.26552406 0.99587476 0.3227227 1.0599937e-38
0.34702656 0.9987703 0.38744873 1.4484411e-38
0.52870423 1.2782664 0.54450291 1.0685306e-38
0.52242523 0.94543719 0.54584956 1.1883471e-38
0.56104487 0.97558683 0.72465456 7.5506572e-39
0.73444694 0.9986884 1.0194378 1.9074378e-38
1.028103 0.99258304 1.3453635 1.4096886e-38
1.5491914 0.9935022 -0.81541663 2.1106266e-38
-0.70815468 0.93389213 -0.53518116 1.0041737e-38
-0.44457045 0.99759734 -0.43726161 8.1996265e-39
-0.48161754 0.99927348 -0.45106199 2.0826448e-38
-0.44197524 0.99879086 -0.39376861 1.4746592e-38
-0.095396489 0.98497105 -0.034927316 1.3643852e-38
0.03169186 0.99870962 0.10085042 1.4464313e-38
0.1115715 0.99786943 0.11907545 1.6328679e-38
0.23799007 0.99957627 0.24181291 5.7107341e-39
0.25058541 0.99936837 0.33514124 8.1103077e-39
0.35357434 0.99393541 0.3573862 2.2766156e-38
0.37374124 0.99919963 0.41583216 1.8063481e-38
0.52593207 0.99183017 0.7381115 1.7138977e-38
0.73255473 0.98222214 0.95127815 1.1052268e-38
1.1271173 0.98784786 1.1595548 1.1239539e-38
1.777225 1.2677425 -0.92258734 1.4192698e-38
-0.64498186 0.94985634 -0.61493075 1.2162587e-38
-0.60506821 0.99842256 -0.60172737 1.7876551e-38
-0.59623563 0.99730814 -0.55772483 1.2254066e-38
-0.45787421 0.99910605 -0.41991964 1.4007951e-38
-0.40564647 0.99276298 -0.39020714 1.0877983e-38
-0.37864256 0.9986937 -0.35454041 1.5851149e-38
-0.12408813 0.99826843 -0.042167608 1.3916486e-38
0.06568633 0.95546633 0.092469797 1.4298583e-38
0.13071069 0.99944651 0.14322299 2.1291392e-38
0.14057718 0.99891901 0.18768565 6.9996274e-39
0.47294572 1.280652 0.47740933 7.5524382e-39
0.49468911 0.99762529 0.52283931 2.2211961e-38
0.53872544 0.94348276 0.56125647 1.6772419e-38
0.58446705 0.99801761 0.72685349 1.2905543e-38
0.7753256 0.99673432 0.82532078 6.0787529e-39
1.0186608 0.99892139 1.0568331 9.3059783e-39
1.2416528 0.97742707 1.2704425 8.7484675e-39
-0.70928109 0.99540091 -0.70197648 2.0272924e-38
-0.65037626 0.99795401 -0.59920681 1.6308873e-38
-0.59878343 1.3524262 -0.51547951 1.2625367e-38
-0.42787504 0.96367788 -0.40377843 1.0417721e-38
-0.37166566 0.99101037 -0.10648967 8.7477976e-39
-0.070921801 0.99731797 -0.031729035 2.0832209e-38
0.056835927 0.99799836 0.087272517 8.6595747e-39
0.10121679 0.97595441 0.21874914 7.0032637e-39
0.29868871 0.93496668 0.30904201 1.750561e-38
0.45425737 1.2723837 0.49194747 1.1516501e-38
0.50068688 0.99809909 0.50717318 9.2188217e-39
0.51559842 0.98007888 0.5631119 1.8612376e-38
0.56973177 0.99819881 0.58422226 5.8940323e-39
0.59825814 0.99619269 0.74844146 1.3458702e-38
0.74224573 0.99660224 0.75794041 2.3506963e-38
1.4590263 0.94934422 1.4687978 7.2765884e-39
-1.0521256 0.99878186 -0.68744695 1.0317234e-38
-0.85180116 1.2779827 -0.68276572 1.6124474e-38
-0.6199159 0.91819572 -0.61490804 1.4184775e-38
-0.51387691 0.99796289 -0.50020117 4.9745997e-39
-0.45207575 0.98289746 -0.40107045 1.1256127e-38
-0.36902347 0.9308663 -0.36604434 2.2208295e-38
-0.31161129 0.99956709 -0.064309262 1.4188424e-38
-0.043622676 1.3570138 0.051065143 1.336473e-38
0.081779495 0.94866067 0.13461813 2.3502655e-38
0.11159517 0.99870521 0.14702681 9.5771421e-39
0.26906145 1.3608723 0.43198639 6.1702436e-39
0.42068624 0.94350028 0.42513108 1.0504517e-38
0.45910561 0.99589258 0.64280796 2.7651556e-39
0.77101278 0.97759962 1.3652329 1.0499864e-38
1.4173115 0.9893952 -0.82772326 1.8801046e-38
-0.71052021 0.9990536 -0.58490193 4.5146726e-39
-0.51828122 0.99719578 -0.51519579 2.2400605e-38
-0.44110718 0.97137427 -0.40134093 1.0042808e-38
-0.3479656 0.98932952 -0.31083754 2.3507334e-38
-0.052971378 0.9861033 0.067060173 1.0688543e-38
0.092293374 1.2836509 0.10073047 1.1795243e-38
0.12909272 0.9755975 0.14699374 1.5755037e-38
0.15014283 0.9432863 0.19599618 1.8983623e-38
0.31230402 0.99699229 0.37100548 1.8243178e-38
0.54519981 1.2853957 0.98905069 1.151217e-38
1.2567538 0.97419262 1.377184 1.6399619e-38
1.2963765 0.99072325 1.3172306 1.5570947e-38
1.2666806 0.93600249 -0.47732049 1.317386e-38
-0.45925665 0.99870551 -0.42734039 1.9904157e-38
-0.46210489 1.1786156 -0.42729789 1.7986403e-38
-0.36676481 0.97391456 -0.3231765 1.8158538e-38
-0.041713931 0.99802577 -0.033686895 1.317493e-38
-0.041498858 1.3671181 0.048920941 1.225371e-38
0.052190881 0.99564612 0.056366879 1.1241722e-38
0.058129869 0.93549174 0.075619869 1.7418489e-38
0.089723162 0.93389559 0.12595436 2.1292835e-38
0.32649547 0.99924773 0.34311506 9.3106572e-39
0.33886942 0.94382536 0.35460505 1.3275432e-38
0.44998801 1.2635641 0.51378739 3.5949275e-39
0.48560819 0.89482319 0.56361014 3.3186909e-39
0.70106459 0.99662912 0.70697874 6.3532434e-39
0.96735924 0.9975366 0.97135848 9.3042056e-39
0.90922046 0.99978662 0.92409492 9.3978039e-39
1.4754498 0.9502703 1.7785751 1.7325178e-38
1.5805408 0.86434084 1.5868987 8.0163268e-39
-0.83029258 0.98276705 -0.79632032 3.3179777e-39
-0.52276301 0.99914706 -0.46135783 2.5807616e-39
-0.48415205 0.99257457 -0.47342175 9.8570389e-39
-0.43539792 0.99359763 -0.41800466 6.7212706e-39
-0.52502006 0.99254328 -0.46939182 8.8446442e-39
-0.36100286 0.98027593 -0.29336193 1.93578e-38
-0.26805037 0.999129 -0.0256221 1.8709202e-38
0.10599139 0.99586695 0.14398192 5.43268e-39
0.16837972 0.88068932 0.20269035 1.5112544e-38
0.21321522 0.9996345 0.22759458 1.013105e-38
0.23368339 0.93813282 0.24560422 1.4101223e-38
0.31940469 0.9402746 0.4825334 8.2896515e-39
0.48744217 0.99782139 0.5297519 1.4373137e-38
0.47214961 0.87222338 0.47793937 8.4729666e-39
0.44478753 0.91043639 0.48532411 5.6224761e-39
0.79136497 1.2811503 0.80057663 9.7719997e-39
0.8632499 0.91498995 1.2872831 1.7694348e-38
1.4185197 0.99305433 -0.77618182 5.9833567e-39
-0.80823612 1.2388765 -0.59149045 1.9166925e-38
-0.41596061 0.99961984 -0.40802014 1.234123e-38
-0.387878 0.98981661 -0.30010018 6.7219755e-39
-0.27599445 0.99760574 -0.2548039 6.8195773e-39
0.026915947 1.2726911 0.15582211 1.6218825e-38
0.15224676 0.90240568 0.1687886 1.7421338e-38
0.30232981 1.2694465 0.43709612 1.8893954e-38
0.44185591 0.98487949 0.45714158 1.5662788e-38
0.4000805 0.93307805 0.42275551 5.4323241e-39
0.43532664 0.99738741 0.4685744 9.30633e-39
0.64782226 1.3688312 1.1470894 1.6953176e-38
1.0897659 0.96719307 1.0988989 8.1956608e-39
1.1949245 0.97795427 -0.4999077 1.1053372e-38
-0.55228591 1.2332195 -0.52549273 1.6492526e-38
-0.43826994 1.2773312 -0.35615236 1.9534985e-38
-0.32953721 0.96916574 0.1906697 1.1242435e-38
0.23209094 0.96948028 0.2445337 1.8340766e-38
0.22272538 0.92347741 0.25232485 1.0041734e-38
0.25462613 0.9975341 0.33156168 2.1383589e-38
0.35259098 0.99962592 0.36181682 8.7524373e-39
0.38607794 0.9349131 0.41392946 1.1792732e-38
0.55487281 1.2838079 0.5705784 9.2127008e-39
0.49719343 0.85623896 0.50873291 1.3091763e-38
0.65184569 1.1847987 0.65862811 1.4835606e-38
0.6613735 0.88115317 0.96823442 8.8421008e-39
1.1614363 0.99129802 1.1734871 7.826165e-39
1.1224118 0.99891037 1.1261841 8.8399428e-39
1.5886017 0.99327064 -0.68854827 1.6307772e-38
-0.49585608 0.87204403 -0.45539278 8.6566362e-39
-0.4196277 0.93548721 -0.3743113 1.8522645e-38
-0.36881956 0.78167713 -0.35707533 5.4316038e-39
-0.43728876 0.90541643 -0.42088661 1.9165483e-38
-0.3582916 0.9297778 -0.34011751 1.1883174e-38
-0.22964157 0.90805811 -0.223508 9.7622845e-39
0.019542927 0.99978787 0.035740674 1.5569872e-38
0.14601797 0.95435369 0.18249026 4.2370487e-39
0.20205204 0.88965607 0.34506047 1.732589e-38
0.42608133 0.99943167 0.44105431 1.0041015e-38
0.68443424 1.3587103 0.76166928 1.6586517e-38
1.1292864 0.99782163 1.1884307 1.566974e-39
1.0367985 0.87029225 1.1956362 1.9167714e-38
1.150333 0.99456352 1.3639473 8.6562886e-39
-0.63024223 0.90582943 -0.56156796 1.2546499e-38
-0.34582189 0.80838364 -0.31162682 1.8246408e-38
-0.25703046 0.99875569 -0.24188499 9.9495386e-39
-0.29211578 0.98926097 -0.2818374 1.7972349e-38
-0.24805646 0.99757034 0.092421092 1.0965495e-38
0.14922391 0.9713738 0.15942435 1.1422145e-38
0.19280104 0.96759486 0.22677138 6.6319533e-39
0.34738183 0.99771088 0.39041203 9.7658704e-39
0.51716644 1.2869003 0.54166257 8.7509954e-39
0.4703415 0.9059006 0.47786105 1.916909e-38
0.52405131 0.99887151 0.54297364 1.7506326e-38
0.51744676 0.99452335 0.98852426 8.4754987e-39
1.5063293 1.3691703 1.5217116 6.0820123e-39
1.306612 0.86862493 1.3399929 1.6952791e-38
-0.66730392 1.2606902 -0.65005165 1.2900903e-38
-0.55532563 0.96940315 -0.50875413 1.5942589e-38
-0.44701958 0.9994294 -0.36155868 1.7433229e-38
-0.34455243 0.99868059 -0.32207239 8.2907403e-39
-0.27580824 0.99900496 -0.26977 1.7417738e-38
-0.26452589 0.99979049 -0.24941276 2.0185046e-38
-0.25688207 0.86257476 -0.18927635 5.1618482e-39
0.059418507 0.98829389 0.073453605 8.8410302e-39
0.078097634 0.93837333 0.17725834 9.0297599e-39
0.45167613 1.2369734 0.46874386 1.9901607e-38
0.38564923 0.80839884 0.41682571 7.8247231e-39
0.45722002 0.9971298 0.66947126 1.1884576e-38
0.87948948 0.99806118 1.122718 1.8152039e-38
0.9724766 0.97644943 1.0603977 1.8888527e-38
1.0784 0.99943775 1.2191591 1.1420361e-38
1.1418864 0.93941653 1.1475456 1.6773103e-38
1.1661224 0.99912453 1.3099694 5.4359282e-39
-0.75624692 1.2849487 -0.52447611 2.0372327e-38
-0.36807394 0.93728977 -0.34889287 9.026869e-39
-0.35140094 0.90648651 -0.24446912 7.9190739e-39
-0.2029302 0.98186338 0.087384932 1.6587257e-38
0.12046041 0.93666142 0.21679483 8.4733491e-39
0.43249854 1.3706745 0.47456521 1.327002e-38
0.47232053 0.81309211 0.47804722 1.56682e-38
0.64544064 1.3547466 1.3120655 6.6351861e-39
1.1005278 0.998303 1.114566 7.9212319e-39
1.3333418 0.99870044 1.4083554 8.1996265e-39
-0.65001923 0.99908429 -0.37736526 1.9993808e-38
-0.33137929 0.99792969 -0.26719067 1.4373134e-38
-0.25938195 0.9994722 -0.25335124 1.1698027e-38
-0.26491547 0.78891456 -0.25518095 6.9996316e-39
-0.22670472 0.93276399 -0.21755464 2.0926581e-38
-0.16481842 0.99863112 -0.13852756 9.7705451e-39
0.22741568 1.3697684 0.26146603 1.39147e-38
0.40854844 0.99372613 0.46296272 9.3959977e-39
0.39746276 0.97935373 0.42342347 7.2787464e-39
0.4416962 0.99962378 0.44542056 1.5481296e-38
0.47546977 0.99757981 0.47920015 1.3729934e-38
0.97768599 0.99944693 1.1384373 1.365465e-38
1.150048 0.99925268 1.1556783 1.2440976e-38
-1.0664943 1.3683251 -0.84057724 1.1334628e-38
-0.62582421 0.89588517 -0.46048591 1.0315107e-38
-0.36725727 0.99963462 -0.33570072 1.8611233e-38
-0.41462567 1.3607819 -0.36979869 1.5299046e-38
-0.33560774 0.99047333 -0.2679503 1.0965486e-38
-0.18788262 0.84316278 -0.16958085 1.4743326e-38
0.11057062 0.9320299 0.11549883 9.2094596e-39
0.18727714 0.99560869 0.22887947 1.2713963e-38
0.36331573 1.1088598 0.37838474 4.7873106e-39
0.53600901 0.99441105 0.54915631 1.9353864e-38
0.52074879 0.99878347 0.89017576 7.0932789e-39
1.1064698 0.96294791 1.1135179 1.2897624e-38
1.1152029 0.86835736 1.1291697 2.2394861e-38
1.0752605 0.93563592 1.0976862 1.0227921e-38
1.1891608 0.87317461 1.201501 1.5941575e-38
1.2477307 0.99718904 1.3203812 7.8269175e-39
1.4324706 0.99400944 -1.014178 1.3732071e-38
-0.91230321 0.95137852 -0.80957252 1.9462255e-38
-0.77490985 0.9638809 -0.70577168 2.0922609e-38
-0.56272072 0.98193353 -0.53554529 8.0148723e-39
-0.47445619 0.99869549 -0.4513613 1.6215223e-38
-0.51118934 1.27916 -0.49523494 9.2991259e-39
-0.40472263 0.93027818 -0.2310922 9.6729545e-39
-0.20930459 0.99375731 0.13169348 1.5668902e-38
0.15068308 0.98317045 0.15601045 1.5204675e-38
0.23170832 0.99775773 0.34566119 1.9811223e-38
0.34702933 0.9364357 0.35045722 1.695136e-38
0.35513151 0.99978113 0.36542213 5.4373617e-39
0.42315468 0.99829233 0.43180609 1.6233973e-38
0.56379187 0.93843645 0.57057381 8.9386377e-39
0.52669066 0.86810738 0.93794441 6.5390234e-39
1.1650872 1.0313298 1.3094206 1.5848589e-38
-0.62280756 0.93958163 -0.59143233 9.6729517e-39
-0.72261244 1.3674175 -0.69973135 1.1604722e-38
-0.52175021 0.95206875 -0.46197551 5.3372474e-39
-0.40722653 0.99809754 -0.3890014 8.8464392e-39
-0.32660326 0.98836362 -0.3059932 1.8340822e-38
-0.27734384 0.99656171 -0.17772217 1.2068596e-38
-0.16382594 0.79757935 -0.14387482 6.0784123e-39
0.19402227 1.1926942 0.21097156 1.5478377e-38
0.21510191 0.96504855 0.23352081 2.2115023e-38
0.22564688 0.99907464 0.23457593 1.7505966e-38
0.24284621 0.99945247 0.37703666 1.427769e-38
0.51758724 0.98852772 0.53162521 1.9072939e-38
0.48727244 0.87264049 0.49662897 1.585294e-38
0.58906257 0.99854052 0.92261094 9.4024969e-39
0.86961061 0.93909609 0.88610905 1.280724e-38
1.2109306 1.3642573 1.2960949 1.1330309e-38
1.3445776 0.96501499 1.3514947 9.674744e-39
1.2001934 0.9992404 1.2122754 3.6867574e-39
1.131647 0.99822009 1.2853042 3.1350031e-39
1.6518719 0.93534195 -1.3307942 4.1506096e-39
-1.0388008 0.85724235 -0.85886693 1.8432663e-38
-0.42193139 0.99187893 -0.38937941 1.9534266e-38
-0.36698774 1.2669541 -0.33865064 1.9440647e-38
-0.31314763 0.99540162 -0.28030315 1.0225407e-38
-0.20690367 0.88542295 -0.17498554 8.9393607e-39
-0.12197646 0.99943274 0.19632488 2.4892988e-39
0.20371144 0.99829406 0.22201908 5.9887124e-39
0.33347845 0.99711871 0.38451338 1.6775252e-38
0.4462989 0.9023661 0.53400683 1.7892768e-38
0.5798158 0.99594826 0.60426766 4.5128817e-39
1.1653441 0.99444449 -0.51885217 1.9997772e-38
-0.48755011 1.3719636 -0.40517965 1.3363672e-38
-0.33413491 0.94491482 -0.30878282 1.7603923e-38
-0.25540772 0.97589254 -0.21462303 2.0185409e-38
-0.19708915 0.99683136 -0.19217822 1.179129e-38
-0.092214204 0.99818593 0.20437798 2.1750213e-38
0.33106816 1.3481888 0.46092308 9.1165297e-39
0.3883656 0.88875788 0.39211479 8.6613319e-39
0.45317 0.98988557 0.50482213 7.9230396e-39
0.66589344 0.99607819 1.3534533 6.8246374e-39
1.2027217 0.85788941 1.2068008 8.6656731e-39
1.2653559 0.99793023 1.4185804 2.3509511e-38
-0.57241756 0.94023401 -0.54487032 2.220759e-38
-0.54168558 1.3609036 -0.4328174 1.5201838e-38
-0.31221759 0.86096549 -0.30729491 1.640432e-38
-0.28090101 0.98222339 -0.2712217 9.1208541e-39
-0.21245037 0.92852736 -0.19577086 1.8337165e-38
-0.24570902 0.94031101 -0.24187991 8.8418178e-39
-0.18108307 0.86917329 -0.17284712 6.7277334e-39
-0.14679371 0.99449998 0.19381584 7.0126146e-39
0.20778942 0.99824053 0.23268455 2.331611e-38
0.47024009 1.3690931 0.55660152 2.3134216e-38
0.51326358 0.96757227 0.53245634 9.1194108e-39
0.4642674 0.9968406 0.48277107 3.2268639e-39
0.46208689 0.93593991 0.47077391 1.3179986e-38
0.56070864 0.99847555 0.56597006 1.584932e-38
0.94010139 0.84381098 0.97770464 1.3548405e-38
0.91405487 0.99829906 1.1021554 7.0914769e-39
1.2614404 0.9963333 -0.78493154 2.3508755e-38
-0.59381485 0.98598409 -0.57015127 1.2714317e-38
-0.38638225 0.92546958 -0.32553032 1.3639173e-38
-0.4369022 0.99632233 -0.42096344 6.9081618e-39
-0.36430955 0.92724103 -0.29357663 8.2871432e-39
-0.21821494 0.99906397 -0.16911821 7.2787604e-39
-0.14069423 0.93809867 -0.11133391 8.387975e-39
-0.097049877 0.99866301 -0.072164387 1.1432607e-38
-0.066137888 1.0825859 -0.055992939 6.4435907e-39
0.21989228 0.93469024 0.23988789 1.5019239e-38
0.47533339 0.99607748 0.50558817 1.2439897e-38
0.4150359 0.91554093 0.42817575 9.1248198e-39
0.45300615 0.99905753 0.49013001 1.3455538e-38
0.50996172 0.99924982 0.52302241 9.9466589e-39
0.53254807 0.99391997 0.53998572 1.4006132e-38
0.96145767 0.9486323 1.03369 1.8535263e-38
1.027956 0.99512076 1.103067 1.5939731e-38
1.114419 0.93672907 1.1348615 1.2167643e-38
-0.58578497 0.99841154 -0.54078412 5.2497195e-39
-0.65753454 0.96038216 -0.42821792 1.0968784e-38
-0.27740365 0.98984301 -0.23972163 2.082502e-38
-0.19646418 0.99621814 -0.15389135 5.2454007e-39
-0.16375409 0.80089724 -0.13347317 6.8138166e-39
-0.080599949 0.99500537 0.097885318 6.3596698e-39
0.26992652 1.0350349 0.27545413 1.6317877e-38
0.27581242 0.97656286 0.36647698 1.5481262e-38
0.40258238 0.99905956 0.48194018 6.537587e-39
0.62883979 1.2809038 0.65723914 1.4279129e-38
0.66741389 0.95112282 0.73945057 1.6679081e-38
0.98089308 0.89552039 0.98694098 8.4754959e-39
1.1765093 0.98477745 1.1884999 8.2896543e-39
1.1312244 0.9392736 1.1759723 1.8154583e-38
1.1982008 0.99734521 -0.36093414 1.7599984e-38
-0.33241463 0.85371017 -0.28390998 5.1589658e-39
-0.25523975 0.99811709 -0.21963537 1.0321921e-38
-0.1692756 0.99839675 -0.11095861 2.3027103e-39
-0.072473414 1.1005772 -0.065599233 1.0503102e-38
-0.039386202 0.91484207 0.33045313 9.1147347e-39
0.35486135 0.99776059 0.38378066 1.013899e-38
0.56916374 1.368728 0.59263355 1.4373484e-38
0.64037257 0.99661088 0.65592939 1.4741551e-38
0.60775298 0.88853544 0.62314773 2.285947e-38
0.62910569 0.99943078 1.149372 2.036585e-38
1.2678723 0.99020755 1.4193103 1.2717198e-38
-0.56236565 0.96950614 -0.55554587 9.3978067e-39
-0.58937418 0.99962759 -0.58213228 2.0644937e-38
-0.35125422 0.93686229 -0.28963071 1.7972e-38
-0.24246462 0.99718457 -0.18690856 1.2624299e-38
-0.21808566 1.3553144 -0.18917437 1.2907e-38
-0.15018055 0.88605917 -0.13839336 1.1893549e-38
-0.10015657 0.93101162 -0.090847671 1.0777141e-38
-0.1101004 0.93633485 -0.10018051 1.4095476e-38
-0.039189208 0.92994756 -0.033578664 1.4284894e-38
0.14866818 0.99661833 0.27621254 1.6971164e-38
0.38939899 0.99907011 0.39304268 1.5019579e-38
0.40293419 0.9325915 0.41146612 1.1243523e-38
0.54260015 0.93496776 0.55807817 1.3827164e-38
0.49327666 0.88833588 0.55984461 1.1061284e-38
0.55933201 0.93127704 0.86957669 2.1843152e-38
1.1944828 1.270093 1.2338827 2.0547684e-38
1.1650538 0.87252456 1.2929217 1.5390886e-38
1.2926265 0.99795258 1.3185823 8.1974587e-39
1.3328313 0.93754399 -0.65383285 7.7354198e-39
-0.42046589 0.87012148 -0.3629787 9.857343e-39
-0.30183053 0.99944121 -0.29071906 1.7234786e-38
-0.26841608 0.97209018 -0.21458486 6.9070856e-39
-0.17870271 0.99430722 -0.15751429 1.364637e-38
-0.18275732 1.3728237 -0.14281441 1.7514237e-38
-0.02072872 0.86120808 0.024714034 4.1495054e-39
0.29294178 0.98361546 0.35990068 1.4744799e-38
0.35910746 0.92976981 0.3828778 7.9205159e-39
0.41597039 1.0744392 0.48570007 1.1973878e-38
0.62910432 1.3651401 0.77871841 1.1985749e-38
1.0892531 0.9739266 1.2542124 1.226341e-38
1.1793491 0.99867618 1.1952746 7.7386497e-39
1.2197902 0.9924444 1.3308229 1.3364014e-38
1.2723986 0.99711674 -1.0507387 5.8028961e-39
-0.79293287 0.9986313 -0.57348037 1.6313544e-38
-0.38164553 0.92807382 -0.34856898 8.5806564e-39
-0.30151358 0.99840152 -0.25426811 1.3545521e-38
-0.18261823 0.981534 -0.1020847 8.4769379e-39
-0.079727903 0.93419182 -0.0641746 1.6504406e-38
-0.046831597 0.99817109 0.0080572348 9.3027455e-39
0.017835049 0.96781003 0.3297419 1.8426128e-38
0.36249277 0.90605938 0.3743729 1.4376016e-38
0.41392389 0.85688126 0.46261969 1.2532461e-38
0.42786071 0.9331919 0.44160199 1.345011e-38
0.4918274 0.99937993 0.5039314 1.1147014e-38
0.77024752 1.3721424 0.8085252 1.4477163e-38
1.1199375 0.96475863 1.1447109 2.0548785e-38
1.0879068 0.86383593 1.1546209 1.2804355e-38
1.4712179 1.2827101 1.4807011 1.4838436e-38
1.2715378 0.98357719 1.2915506 1.0783273e-38
-0.85429168 0.99699646 -0.60572398 1.7602128e-38
-0.40515256 0.99861848 -0.39945284 1.5948366e-38
-0.28237385 0.9968065 -0.25293157 1.972087e-38
-0.27757114 0.96897477 -0.27021402 1.8335e-38
-0.20736197 0.99102062 -0.16759455 6.3557139e-39
-0.13117097 0.99557585 -0.11968218 1.0778229e-38
-0.06725964 0.99890941 -0.051668704 1.0870776e-38
-0.031202992 0.99825746 -0.020245852 1.9634759e-38
-0.017853351 0.93292314 -0.011836588 2.1192711e-38
-0.0067778672 0.89472985 0.0036828078 6.9060122e-39
0.2815918 0.98282313 0.46722427 1.6770206e-38
0.59021896 0.99868709 0.5977127 1.7147249e-38
0.92882186 0.99395025 0.93654484 1.0775699e-38
0.88207942 0.96679652 0.88750732 1.5483067e-38
1.0086895 0.8907553 1.139864 5.7085396e-39
1.370275 0.99602443 1.5332611 1.6312842e-38
-0.44143656 0.99316186 -0.39569205 1.2809781e-38
-0.34446689 1.2801689 -0.33308741 1.0691783e-38
-0.19515406 0.99794763 -0.1528333 1.0230818e-38
-0.12891102 0.93406183 -0.091980547 1.6679817e-38
-0.042165644 0.99883151 -0.023397312 2.0089249e-38
0.015499777 0.98771226 0.3604992 2.2299765e-38
0.35892323 0.9403854 0.3707909 1.437312e-38
0.37226519 0.99541193 0.99798727 1.2723684e-38
1.122714 1.0829407 1.1504246 1.6503686e-38
1.1596131 0.93073243 1.1762832 2.0928684e-38
1.1817728 0.99937677 1.2391429 1.1339344e-38
-0.88233012 0.99376559 -0.7766279 1.2712145e-38
-0.63551056 0.98087108 -0.44658232 8.3825898e-39
-0.38276911 0.99850953 -0.2370061 1.022793e-38
-0.26870146 1.3712752 -0.23783642 1.4566207e-38
-0.17706951 0.85934848 -0.16047867 8.2896655e-39
-0.14643759 0.99811953 -0.13001001 9.5807533e-39
-0.14185388 1.1519196 -0.094278574 2.1110605e-38
-0.065138042 0.99515319 -0.049744494 7.8301265e-39
0.010301261 0.99797088 0.02720546 5.4380862e-39
0.046161003 0.94002271 0.076537721 1.667622e-38
0.1140542 0.98948991 0.41988954 1.5576353e-38
0.3640483 0.84089106 0.41323161 1.3368378e-38
0.45263985 0.99905705 0.45814952 2.1669559e-38
0.46367836 0.99664319 0.51332277 1.6214503e-38
0.66213346 1.1960505 1.0498637 1.1152406e-38
1.1278433 0.99944508 1.1514295 1.7694695e-38
1.1642233 0.99817729 1.1779548 2.0179638e-38
1.139143 0.99900836 1.1962037 9.0286725e-39
1.6420056 0.90313381 1.7342525 1.7795145e-38
-0.91959441 0.99925727 -0.52894884 1.6687339e-38
-0.40764233 0.99681032 -0.37063852 4.4221392e-39
-0.26089716 1.2138466 -0.25728825 6.4443348e-39
-0.1982865 0.99755883 -0.13965547 1.6957145e-38
-0.11815742 0.99925363 -0.10992196 1.732662e-38
-0.096110284 0.99707699 -0.073048681 1.0870053e-38
-0.054498523 0.99798065 -0.040504374 1.2621036e-38
-0.040132195 1.3574436 -0.018919075 8.1996265e-39
0.042474084 0.99721873 0.064607203 6.9031325e-39
0.31920588 0.93945634 0.34105968 1.0416261e-38
0.35727319 0.99893904 0.38587627 2.6772634e-39
0.50738645 0.89390939 0.51128089 1.806024e-38
0.52735531 0.99681008 0.63546681 1.2534248e-38
1.1529777 0.99316138 -0.56799203 7.3651813e-39
-0.61031806 0.78637564 -0.51789075 8.1063491e-39
-0.41971636 0.99336916 -0.38446116 1.1145918e-38
-0.33915716 0.98322374 -0.2779119 2.2026803e-38
-0.27149776 0.99725276 -0.24302416 6.8141711e-39
-0.19363089 0.97239733 -0.16951607 1.1886737e-38
-0.15814804 0.9974702 -0.14152232 6.8195801e-39
-0.093740761 1.1019553 -0.088664725 1.4105532e-38
-0.076512218 0.97919637 -0.054963503 9.4057451e-39
-0.035863347 0.93694073 -0.032741211 2.3504474e-38
-0.020057786 0.98232609 -0.0065716836 1.1150262e-38
0.0018767815 0.99943733 0.012025492 9.4093492e-39
0.088678576 0.99888003 0.33272848 1.0874379e-38
0.50628531 1.3642869 0.51783025 9.4896843e-39
0.48892692 0.88367087 0.60769856 1.1248517e-38
0.59883648 0.99149382 0.62859643 1.6772706e-38
1.089111 0.99619132 1.1071849 9.8569772e-39
0.99828905 0.99963665 1.1285071 9.9462848e-39
1.0909535 0.99917179 1.1003034 1.6963945e-38
1.5421772 1.3498677 1.6219109 2.1564393e-38
1.4429924 0.99223238 1.4490751 6.4422034e-39
-0.42688119 0.95599312 -0.33110371 9.1190591e-39
-0.31186846 0.97293663 -0.20853668 1.4279479e-38
-0.24019697 1.2746936 -0.19220671 1.142395e-38
-0.13884321 0.88518512 -0.12880942 1.6676591e-38
-0.096185878 0.93208385 -0.040494248 7.0018106e-39
-0.0017230675 1.2349595 0.0060334783 2.3959794e-39
0.034117371 0.8888309 0.10958385 2.9538279e-39
0.16704261 0.99097151 0.37500897 1.327399e-38
0.3756941 0.93918067 0.43344322 1.078109e-38
0.49829113 0.99978602 0.86699921 1.7694658e-38
1.0423034 0.99907577 1.0605519 1.1698742e-38
1.4054451 0.96474946 1.4398751 1.3455131e-38
1.4632288 0.88548619 -1.0252508 9.6740391e-39
-0.76754278 0.99815542 -0.407747 1.8531976e-38
-0.32366571 0.9359656 -0.2002555 1.8070304e-38
-0.17301938 0.99959308 -0.098791666 6.6398538e-39
-0.096529923 0.99943703 -0.066742189 1.1063403e-38
0.11586677 1.2426668 0.13172652 1.0685311e-38
0.12197942 0.99739707 0.20356785 1.1789837e-38
0.36674815 0.99778217 0.37033805 2.6747298e-39
0.40486577 0.99708241 0.45724747 2.1839197e-38
0.4551419 0.99945557 0.88819039 8.1038646e-39
1.0565408 0.99979192 1.071147 1.6311776e-38
1.2828106 1.1920009 1.2893434 7.7354562e-39
1.242996 0.98250324 1.2627861 6.7230629e-39
1.3020704 0.93008721 -0.74589908 1.0415193e-38
-0.67679447 0.99760383 -0.4515892 2.2040498e-38
-0.49414575 0.97743928 -0.48021895 6.8178047e-39
-0.31592596 0.90441293 -0.17900997 7.1854746e-39
-0.17049663 0.88846362 -0.16449952 2.0177842e-38
-0.1726526 1.3691092 -0.088953182 7.3676952e-39
-0.06478899 0.88763916 0.03127481 1.1608693e-38
0.049168836 0.97917354 0.13821582 1.8625242e-38
0.13514923 0.99852186 0.14482217 1.9084811e-38
0.39260328 0.99877942 0.39639169 1.6321425e-38
0.39720646 0.98488706 0.41170502 2.1668746e-38
0.56725723 1.2828304 0.57381523 1.5759294e-38
0.4659344 0.99894184 0.47106385 6.4482627e-39
0.6485514 1.3678477 0.68605578 1.1977491e-38
0.64470923 0.99435246 0.9499079 5.0667729e-39
0.94932145 0.97285324 0.99359024 5.9854782e-39
1.2027409 1.107276 1.3692507 9.4892863e-39
1.3477758 0.99744523 -0.4736678 8.6551956e-39
-0.38511658 0.93369508 -0.38227621 1.5202883e-38
-0.37634718 0.99957353 -0.33054253 7.6529057e-39
-0.1063631 0.99926764 -0.072681375 8.6670534e-39
-0.028349554 0.98152655 -0.016623335 1.7503855e-38
-0.012308089 0.92831427 0.0017359669 7.0922294e-39
0.0048545441 0.99879628 0.018928455 1.2436293e-38
0.066845402 1.2874008 0.1940423 1.0686741e-38
0.20097899 0.9258343 0.40173125 1.768856e-38
0.51640189 0.9992525 1.1195515 1.3920785e-38
1.2461494 1.1892297 1.272203 1.9366041e-38
1.2178487 0.97264409 1.2315403 6.733808e-39
1.1598785 0.997962 1.1672182 9.1294609e-39
-0.90414172 0.99897629 -0.57163864 1.2815142e-38
-0.63976073 1.3700922 -0.46272025 1.2815879e-38
-0.19664259 0.9995237 -0.18734911 1.9077597e-38
-0.13831811 0.99935442 -0.13225891 1.1148456e-38
-0.15566505 1.2831308 -0.14982653 1.2452507e-38
-0.11935479 0.98036194 -0.10129201 1.7597823e-38
-0.092727572 0.99888378 -0.084507443 5.6145489e-39
-0.040211916 0.99886131 -0.037118554 8.2975899e-39
0.039580375 0.99921054 0.053365886 1.0421989e-38
0.056896418 0.91900945 0.075959787 1.9179838e-38
0.13324273 0.99756801 0.15578511 1.1063442e-38
0.21258332 0.9037385 0.24071741 1.7046455e-38
0.21478653 0.97471148 0.22004521 1.6866707e-38
0.36298221 0.99832314 0.37554285 1.2258026e-38
0.4454354 1.2386789 0.45373812 1.0412358e-38
0.43648702 0.9297297 0.44499135 1.3913934e-38
0.70150995 1.3736483 1.1772947 1.0410154e-38
0.88403809 0.90571964 0.92910373 2.082826e-38
1.1611617 1.0997511 1.2033242 1.5291113e-38
-0.50599051 0.99739236 -0.48969263 1.6860943e-38
-0.41990721 0.93805498 -0.3274717 1.4371675e-38
-0.14696807 0.99937969 -0.14093977 7.3698672e-39
-0.073162027 0.98388809 -0.029964473 1.7980963e-38
-0.026578905 0.99887604 -0.0031677582 9.6822844e-39
0.018922688 0.93051398 0.031465944 1.2355617e-38
0.052483436 1.2874068 0.078790009 6.6297939e-39
0.077581435 0.97325754 0.11161117 1.8154561e-38
0.12282483 0.99889797 0.14904521 1.7154847e-38
0.16581078 0.98547614 0.18854447 1.4095094e-38
0.2368928 0.99700987 0.48403236 1.0500917e-38
0.48699152 0.99596304 0.53074545 1.3634462e-38
0.58449686 0.96974498 0.87013245 1.1238482e-38
1.417267 1.3658301 -1.3250259 7.8387249e-39
-0.34552082 0.9376328 -0.33979344 1.7429559e-38
-0.15958168 1.2416515 -0.11819949 1.7044652e-38
-0.066132873 0.88847864 -0.057681371 1.3912189e-38
0.0018627703 0.9843387 0.025399169 7.1854746e-39
0.069027252 0.99926543 0.11659614 3.5076855e-39
0.16047305 0.98979145 0.17530751 1.9458212e-38
0.20921257 0.99827123 0.223903 1.6862787e-38
0.29241496 0.99843985 0.34053326 1.1439797e-38
0.40820888 0.99600536 0.43222091 4.7909386e-39
0.86246163 0.99356991 0.89279211 8.0134304e-39
1.1161089 0.90674603 1.1274704 8.3922504e-39
1.124168 0.98007476 1.3305752 1.2355229e-38
1.1244156 0.96842849 1.1371697 1.5853293e-38
1.4217278 0.9980939 1.5942311 6.9078241e-39
-1.0483174 0.9168095 -0.88415933 5.9865797e-39
-0.50371408 1.1062492 -0.43899924 6.0784095e-39
-0.35099009 0.9740476 -0.32620299 1.2256236e-38
-0.24090739 0.99652231 -0.19343519 9.0301116e-39
-0.13360703 1.0504711 -0.094372876 1.7057583e-38
-0.073842041 0.99783075 -0.036993075 5.8137169e-39
0.067828648 0.93935114 0.14133032 1.0132509e-38
0.17950235 0.99800938 0.19731696 1.8153129e-38
0.31484133 0.8009218 0.36939651 5.6178252e-39
0.40250161 0.97739679 0.41092542 1.0599249e-38
0.50458032 0.84958774 0.53038669 1.40011e-38
0.62942922 0.99906319 0.936167 1.0502349e-38
0.90724891 0.96032012 0.91459435 1.8157096e-38
1.0896881 0.99707669 1.1169688 1.5200722e-38
1.4043404 0.96706074 1.5520366 1.0694654e-38
-0.59757054 0.99918514 -0.34238267 8.7603098e-39
-0.14959291 0.98141879 -0.11709886 1.8527357e-38
-0.11139824 0.99945289 -0.069056489 1.1703065e-38
-0.060231615 0.980214 -0.032456644 1.2439911e-38
-0.029137282 1.3506885 -0.022855779 4.4217763e-39
0.032022659 0.99944144 0.040435817 1.3541198e-38
0.055071432 0.99923897 0.096280299 9.1205038e-39
0.12689415 1.2801766 0.13095997 1.3645619e-38
0.18460724 0.98542374 0.23875803 1.0145035e-38
0.25567314 0.99487066 0.31001443 1.4753414e-38
0.34753224 0.97864473 0.37095541 1.5770462e-38
0.38037682 0.99947608 0.39548299 6.5365276e-39
0.56578529 0.90718293 0.61656922 2.0385283e-38
0.92026818 0.95982951 0.95161599 1.7610754e-38
1.1619395 0.9799391 1.1692569 5.5327804e-39
1.1711555 0.99646807 -0.96567285 1.5860074e-38
-0.46364158 0.99948686 -0.37461647 1.0781494e-38
-0.40647474 0.99338096 -0.35980162 9.2112547e-39
-0.32164115 0.95847577 -0.24696364 9.6740279e-39
-0.20655809 0.99914283 -0.13465787 1.9814823e-38
-0.111857 1.107779 -0.10346183 1.7602849e-38
-0.014210972 0.95775396 -0.0046236208 1.4002892e-38
0.02353506 0.97662681 0.10705279 7.4580958e-39
0.11806246 0.99918658 0.12762272 8.5734551e-39
0.18132557 1.3697016 0.19007652 1.4566856e-38
0.20061919 0.98013204 0.26156297 1.1435056e-38
0.34220758 0.97789276 0.35388684 9.0379981e-39
0.44802183 0.9973368 0.46493989 1.0697503e-38
0.93031508 0.83882183 1.2077267 6.6434439e-39
1.1741571 0.95250171 1.222697 1.7241296e-38
-0.81408274 0.99935877 -0.28783625 1.7694343e-38
-0.3190431 1.365142 -0.30903155 6.1713493e-39
-0.082065828 0.94163269 -0.045877792 6.0795054e-39
0.015730726 0.99839634 0.067457013 9.7669536e-39
0.10641299 1.2811853 0.14698435 9.1241276e-39
0.19460155 0.99719661 0.28549778 2.0364397e-38
0.2885617 0.99906355 0.29561731 4.6072213e-39
0.39966726 0.95593828 0.4531776 5.9008608e-39
0.49838924 0.99700433 0.88556033 9.3963508e-39
-0.33341289 0.92842191 -0.32779625 1.2992744e-38
-0.13776405 1.3692615 -0.054518852 1.3732808e-38
-0.034157943 0.96780753 0.042516332 1.1054441e-38
0.14576505 0.98430663 0.22012205 1.0225774e-38
0.22952738 0.96164709 0.29187948 1.5294727e-38
0.3541812 0.99769437 0.36781061 3.595226e-39
0.37745583 0.98685962 0.43451625 1.7518876e-38
0.46383446 0.99867302 0.46890643 1.9268465e-38
0.61336952 0.93692231 1.1228436 1.1894956e-38
1.0114473 0.99295926 1.2349075 1.5586787e-38
1.2816812 0.98987049 1.3302808 4.3374658e-39
1.2557167 0.99482435 -0.81206995 6.827468e-39
-0.86157143 0.99926209 -0.83505815 2.1012648e-38
-0.43762818 0.99709123 -0.062706739 1.8526964e-38
0.00018472035 0.86810219 0.0051824525 1.511754e-38
0.0081344154 0.95826977 0.022493867 1.3376979e-38
0.044790797 0.99799281 0.051199649 1.9633314e-38
0.054648113 0.99789554 0.095540702 7.5520893e-39
0.10861417 0.88927674 0.12082914 1.5212242e-38
0.12177308 0.98090655 0.17503236 5.9012112e-39
0.17160802 0.95403302 0.17490071 1.6874962e-38
0.25023389 0.98749524 0.38746521 2.859484e-39
0.49958339 1.2841519 0.57916152 1.0134268e-38
0.54231101 0.98962951 0.64136547 7.1829901e-39
0.92531651 0.98344904 0.93104082 4.6987429e-39
1.191348 0.99650669 1.2126453 1.5016342e-38
1.1658125 0.98247087 1.1897496 1.1158119e-38
1.1780891 0.99445236 1.3397694 1.3281808e-38
-0.4516435 0.99877048 -0.34778383 2.6747383e-39
-0.23584677 0.75820857 -0.22233552 1.6413997e-38
-0.070340708 0.9987399 -0.032162517 1.280578e-38
-0.012570036 0.95961779 -0.004608253 1.4652595e-38
0.011023488 0.99956983 0.029688153 1.2997743e-38
0.076861493 0.98960739 0.1914763 1.5209719e-38
0.19174433 0.99868596 0.1969278 1.4296774e-38
0.23243983 0.96384889 0.38167408 7.6493534e-39
0.38899651 0.98609847 0.4144505 1.741881e-38
0.43694878 0.99978739 0.4403162 8.9324902e-39
0.57055694 1.2817597 0.64647716 2.0285803e-38
0.89944762 0.80783033 1.1288562 2.129639e-38
-0.65624148 0.99791288 -0.3834939 2.0100036e-38
-0.40274575 1.2467241 -0.066563599 4.3349672e-39
-0.048153728 0.92421466 -0.024835853 1.8904663e-38
0.017211471 0.99957085 0.10496698 1.6599448e-38
0.11105443 0.99865061 0.14276969 1.7797288e-38
0.16449259 0.99686718 0.27393702 2.0087796e-38
0.37889823 0.98947799 0.60798907 1.603085e-38
0.49954474 0.83919007 0.51225424 1.2910905e-38
0.52764255 0.99944144 0.66710758 9.9609802e-39
0.87962335 0.99584961 0.94351333 4.6083031e-39
1.1095279 0.99942142 1.1410031 6.4547311e-39
1.1942809 0.99660063 -0.81693119 2.0930857e-38
-0.35849908 0.99869502 -0.30626756 8.2068025e-39
-0.070851557 0.91472948 -0.045611259 2.0191119e-38
-0.017998077 0.99962646 -0.0080894716 1.1526916e-38
0.039966747 0.99644232 0.067221336 3.6892419e-39
0.079525493 0.99883342 0.090525441 1.6690587e-38
0.12467847 0.99464333 0.13853623 1.6507624e-38
0.15081194 0.96163261 0.17389418 6.918963e-39
0.19465622 0.99955374 0.2161869 8.3825982e-39
0.35616216 0.98776233 0.38142931 7.3673953e-39
0.39725614 0.98589885 0.40560308 5.9862027e-39
0.65495831 1.3700334 0.82499969 1.9263088e-38
0.92365503 0.97988611 1.036092 1.8801024e-38
1.1017636 0.96343428 1.1221071 7.0979593e-39
1.2203678 0.98967457 1.2295742 1.9641149e-38
1.3825809 0.99671918 -0.82515424 5.348752e-39
-0.57956582 1.3565991 -0.54222631 7.6550497e-39
-0.44847667 0.9985438 -0.035124455 1.6325005e-38
0.058466274 0.98435384 0.065172002 1.8983991e-38
0.076757133 0.99925673 0.16305766 2.0640967e-38
0.18149649 0.96582776 0.18479562 1.7968047e-38
0.2063317 0.98731315 0.2571691 4.9735179e-39
0.46363854 0.99978727 0.48387322 2.1289235e-38
0.54329687 0.79954958 0.96805364 9.8537248e-39
0.95850164 0.997567 1.1637485 3.967593e-39
1.1601363 0.96234918 1.1768706 1.3650239e-38
1.1474054 0.97137785 1.1745058 2.1024132e-38
-0.87442911 1.0680356 -0.68226933 1.8163545e-38
-0.43344355 0.99805546 -0.29331556 2.0193291e-38
-0.28877753 1.3658496 -0.28078735 7.6539819e-39
-0.078102775 0.92698747 -0.067248635 1.7704376e-38
0.0048653982 0.98598987 0.014264163 1.9085853e-38
0.043387141 0.99959069 0.0776366 1.4112299e-38
0.085344642 0.99930096 0.12458821 1.6323583e-38
0.34960631 1.3683057 0.52195597 1.115708e-38
0.39386153 0.97963607 0.44786906 1.8351515e-38
0.49171916 0.99946803 0.8637737 1.5576367e-38
0.86816573 0.99968767 0.87169874 1.226738e-38
1.0123372 0.86189049 1.1841524 1.1606888e-38
1.277485 0.98046947 1.3221608 1.880211e-38
1.3148818 0.99682122 1.3223526 9.5782449e-39
1.376641 0.99330533 -0.71443528 9.3095754e-39
-0.4655374 1.3681455 -0.37060165 2.350767e-38
0.029860601 0.8358708 0.053072173 5.8079351e-39
0.062149972 0.99599469 0.10231443 1.7613935e-38
0.11184614 0.99578583 0.1230019 5.9062166e-39
0.17922868 1.3658278 0.24656059 7.9281221e-39
0.27528349 0.99744689 0.36799741 1.9906301e-38
0.42955858 0.98537356 0.45806095 1.510997e-38
0.53056675 1.1029116 0.55662251 1.0146788e-38
0.69227177 0.99880499 1.1760482 2.1023768e-38
1.1957655 0.99887854 1.2847294 9.4042892e-39
1.2552327 0.96945107 1.2795069 1.5588131e-38
1.2844719 0.99673426 -0.84645516 1.807455e-38
-0.49211743 0.98419797 -0.075201996 1.6416141e-38
-0.071408585 0.99044377 0.072941691 1.2909499e-38
0.08057452 0.999587 0.10246632 1.5123261e-38
0.2071469 1.2905893 0.32260534 1.2716135e-38
0.39882666 0.96055704 0.40224439 1.5950196e-38
0.41003209 0.97186106 0.46851751 1.0972719e-38
0.7890358 1.2402076 1.0849112 1.4201716e-38
1.1623139 0.97935641 1.1719586 7.461344e-39
1.1345187 0.96285123 1.2162437 8.2911047e-39
1.2231823 0.99685889 -0.62881988 2.1562934e-38
-0.50528437 0.98276055 -0.24809428 1.9917406e-38
-0.079661794 0.99974906 0.048467942 1.1804208e-38
0.061766546 0.99845129 0.091322005 7.839092e-39
0.15502229 1.3736523 0.23927902 8.8507272e-39
0.20200531 0.98097879 0.2849561 7.3823822e-39
0.39052024 0.99820727 0.43488091 3.5044877e-39
0.43303028 0.99689662 0.4532989 6.5490539e-39
0.48591378 0.99926382 0.49768183 7.9219578e-39
0.54506987 0.83383405 0.68578482 1.9171611e-38
0.87497401 0.98979253 0.87855452 4.3306484e-39
0.87967438 0.99949133 0.88859218 1.586542e-38
1.1216136 0.99694282 -0.08155366 2.3416566e-38
0.069202565 0.9998098 0.13145776 6.4518654e-39
0.18847257 0.99655968 0.35368696 7.0093173e-39
0.3876088 0.9808439 0.50886935 2.9534607e-39
0.69238311 0.9996956 0.87543637 3.9694217e-39
0.88095373 0.99894744 1.197699 5.4330457e-39
